ply
format ascii 1.0
comment Created by Open3D
element vertex 3189
property double x
property double y
property double z
end_header
103 46 -94.7453
104 46 -94.7453
105 46 -94.7453
106 46 -94.7453
107 46 -94.7453
108 46 -94.7453
109 46 -94.7453
110 46 -94.7453
111 46 -94.7453
112 46 -94.7453
113 46 -94.7453
114 46 -94.7453
115 46 -94.7453
116 46 -94.7453
117 46 -94.7453
118 46 -94.7453
119 46 -94.7453
0 47 -94.7453
1 47 -94.7453
2 47 -94.7453
3 47 -94.7453
4 47 -94.7453
5 47 -94.7453
6 47 -94.7453
7 47 -94.7453
8 47 -94.7453
9 47 -94.7453
10 47 -94.7453
11 47 -94.7453
12 47 -94.7453
13 47 -94.7453
14 47 -94.7453
15 47 -94.7453
16 47 -94.7453
17 47 -94.7453
18 47 -94.7453
19 47 -94.7453
20 47 -94.7453
21 47 -94.7453
22 47 -28.2421
23 47 -29.6064
24 47 -24.8758
25 47 -22.0717
26 47 -20.0841
27 47 -18.6318
28 47 -17.1751
29 47 -16.8228
30 47 -16.0902
31 47 -15.4595
32 47 -14.8348
33 47 -14.0361
34 47 -13.894
35 47 -13.3832
36 47 -12.951
37 47 -12.5344
38 47 -12.5885
39 47 -12.1521
40 47 -11.9587
41 47 -12.144
42 47 -12.138
43 47 -12.3189
44 47 -12.5153
45 47 -12.5954
46 47 -12.3615
47 47 -12.3434
48 47 -12.7123
49 47 -12.414
50 47 -12.7699
51 47 -12.5729
52 47 -12.506
53 47 -12.3705
54 47 -11.8509
55 47 -11.2849
56 47 -9.85441
57 47 -9.46166
58 47 -9.25953
59 47 -9.23442
60 47 -9.06644
61 47 -8.7848
62 47 -8.95549
63 47 -9.26182
64 47 -9.25472
65 47 -9.52898
66 47 -9.78214
67 47 -9.99989
68 47 -9.95927
69 47 -10.4533
70 47 -10.9426
71 47 -10.9994
72 47 -11.4643
73 47 -11.9699
74 47 -12.5536
75 47 -13.0237
76 47 -13.6197
77 47 -14.1736
78 47 -14.4361
79 47 -14.3226
80 47 -14.6918
81 47 -14.7535
82 47 -14.7393
83 47 -14.8332
84 47 -14.7939
85 47 -14.9157
86 47 -14.9746
87 47 -15.1963
88 47 -15.2867
89 47 -15.6265
90 47 -16.0728
91 47 -16.5908
92 47 -17.0296
93 47 -17.5979
94 47 -18.8474
95 47 -20.3154
96 47 -21.656
97 47 -23.0156
98 47 -23.6384
99 47 -23.7571
100 47 -94.7453
101 47 -94.7453
102 47 -94.7453
103 47 -94.7453
104 47 -94.7453
105 47 -94.7453
106 47 -94.7453
107 47 -94.7453
108 47 -94.7453
109 47 -94.7453
110 47 -94.7453
111 47 -94.7453
112 47 -94.7453
113 47 -94.7453
114 47 -94.7453
115 47 -94.7453
116 47 -94.7453
117 47 -94.7453
118 47 -94.7453
119 47 -94.7453
0 48 -94.7453
1 48 -94.7453
2 48 -94.7453
3 48 -94.7453
4 48 -94.7453
5 48 -94.7453
6 48 -94.7453
7 48 -94.7453
8 48 -94.7453
9 48 -94.7453
10 48 -94.7453
11 48 -94.7453
12 48 -94.7453
13 48 -94.7453
14 48 -94.7453
15 48 -94.7453
16 48 -94.7453
17 48 -94.7453
18 48 -94.7453
19 48 -94.7453
20 48 -94.7453
21 48 -94.7453
22 48 -25.1348
23 48 -28.1156
24 48 -23.96
25 48 -21.6387
26 48 -19.8602
27 48 -18.3094
28 48 -17.2057
29 48 -16.4339
30 48 -15.8048
31 48 -14.8854
32 48 -14.6158
33 48 -13.9076
34 48 -13.6318
35 48 -13.2253
36 48 -12.9274
37 48 -12.3931
38 48 -12.263
39 48 -12.3037
40 48 -12.3561
41 48 -12.3374
42 48 -12.3586
43 48 -12.279
44 48 -12.3693
45 48 -12.1953
46 48 -12.1176
47 48 -12.2092
48 48 -12.2886
49 48 -12.2884
50 48 -12.2447
51 48 -11.909
52 48 -12.0052
53 48 -11.4701
54 48 -10.8611
55 48 -9.94144
56 48 -9.18969
57 48 -8.97649
58 48 -8.72283
59 48 -8.62066
60 48 -8.73012
61 48 -8.7204
62 48 -8.70505
63 48 -8.80935
64 48 -8.96401
65 48 -9.08475
66 48 -9.34172
67 48 -9.63161
68 48 -9.82087
69 48 -10.2529
70 48 -10.543
71 48 -10.9818
72 48 -11.2238
73 48 -11.5039
74 48 -11.9608
75 48 -12.3333
76 48 -13.146
77 48 -13.543
78 48 -13.9913
79 48 -14.0111
80 48 -14.2453
81 48 -14.5725
82 48 -14.6334
83 48 -14.7487
84 48 -14.8198
85 48 -14.8644
86 48 -14.8962
87 48 -15.1278
88 48 -15.4607
89 48 -15.8238
90 48 -16.4294
91 48 -16.7256
92 48 -17.3893
93 48 -17.8139
94 48 -19.1369
95 48 -20.6134
96 48 -22.1019
97 48 -24.232
98 48 -23.1012
99 48 -94.7453
100 48 -94.7453
101 48 -94.7453
102 48 -94.7453
103 48 -94.7453
104 48 -94.7453
105 48 -94.7453
106 48 -94.7453
107 48 -94.7453
108 48 -94.7453
109 48 -94.7453
110 48 -94.7453
111 48 -94.7453
112 48 -94.7453
113 48 -94.7453
114 48 -94.7453
115 48 -94.7453
116 48 -94.7453
117 48 -94.7453
118 48 -94.7453
119 48 -94.7453
0 49 -94.7453
1 49 -94.7453
2 49 -94.7453
3 49 -94.7453
4 49 -94.7453
5 49 -94.7453
6 49 -94.7453
7 49 -94.7453
8 49 -94.7453
9 49 -94.7453
10 49 -94.7453
11 49 -94.7453
12 49 -94.7453
13 49 -94.7453
14 49 -94.7453
15 49 -94.7453
16 49 -94.7453
17 49 -94.7453
18 49 -94.7453
19 49 -94.7453
20 49 -94.7453
21 49 -94.7453
22 49 -23.6663
23 49 -26.6784
24 49 -23.3089
25 49 -21.2756
26 49 -19.4062
27 49 -17.868
28 49 -17.0666
29 49 -16.1173
30 49 -15.4325
31 49 -14.8783
32 49 -14.3461
33 49 -13.6087
34 49 -13.4357
35 49 -13.3389
36 49 -12.7652
37 49 -12.6684
38 49 -12.4193
39 49 -12.5007
40 49 -12.3726
41 49 -12.2333
42 49 -12.2906
43 49 -12.2459
44 49 -12.2527
45 49 -12.0357
46 49 -12.2653
47 49 -12.2527
48 49 -12.0716
49 49 -12.0964
50 49 -12.082
51 49 -11.6149
52 49 -11.1177
53 49 -10.8209
54 49 -10.0245
55 49 -8.6649
56 49 -8.37497
57 49 -8.31362
58 49 -8.09281
59 49 -8.17336
60 49 -7.69675
61 49 -8.19192
62 49 -8.44094
63 49 -8.40628
64 49 -8.52488
65 49 -8.99555
66 49 -9.1608
67 49 -9.56986
68 49 -9.59254
69 49 -10.0986
70 49 -10.2174
71 49 -10.6742
72 49 -10.9579
73 49 -10.9734
74 49 -11.7021
75 49 -12.1624
76 49 -12.7515
77 49 -13.1513
78 49 -13.5004
79 49 -14.0243
80 49 -14.0027
81 49 -14.2113
82 49 -14.202
83 49 -14.4841
84 49 -14.759
85 49 -14.9611
86 49 -15.2435
87 49 -15.2754
88 49 -15.7793
89 49 -16.1126
90 49 -16.3398
91 49 -16.7777
92 49 -17.2873
93 49 -17.785
94 49 -19.1816
95 49 -20.6649
96 49 -22.3788
97 49 -24.6382
98 49 -23.2088
99 49 -94.7453
100 49 -94.7453
101 49 -94.7453
102 49 -94.7453
103 49 -94.7453
104 49 -94.7453
105 49 -94.7453
106 49 -94.7453
107 49 -94.7453
108 49 -94.7453
109 49 -94.7453
110 49 -94.7453
111 49 -94.7453
112 49 -94.7453
113 49 -94.7453
114 49 -94.7453
115 49 -94.7453
116 49 -94.7453
117 49 -94.7453
118 49 -94.7453
119 49 -94.7453
0 50 -94.7453
1 50 -94.7453
2 50 -94.7453
3 50 -94.7453
4 50 -94.7453
5 50 -94.7453
6 50 -94.7453
7 50 -94.7453
8 50 -94.7453
9 50 -94.7453
10 50 -94.7453
11 50 -94.7453
12 50 -94.7453
13 50 -94.7453
14 50 -94.7453
15 50 -94.7453
16 50 -94.7453
17 50 -94.7453
18 50 -94.7453
19 50 -94.7453
20 50 -94.7453
21 50 -94.7453
22 50 -22.4144
23 50 -25.2453
24 50 -22.33
25 50 -20.4176
26 50 -19.1987
27 50 -17.4307
28 50 -16.713
29 50 -15.959
30 50 -15.3424
31 50 -14.5865
32 50 -14.0259
33 50 -13.4542
34 50 -13.448
35 50 -13.0696
36 50 -12.5777
37 50 -12.4448
38 50 -12.265
39 50 -12.0973
40 50 -12.4502
41 50 -12.3681
42 50 -12.1722
43 50 -12.2497
44 50 -12.0196
45 50 -11.8799
46 50 -11.6072
47 50 -11.746
48 50 -11.9494
49 50 -11.604
50 50 -11.5208
51 50 -10.9812
52 50 -10.3735
53 50 -9.75437
54 50 -8.94405
55 50 -8.09821
56 50 -7.59192
57 50 -7.67922
58 50 -7.68081
59 50 -7.7638
60 50 -8.13688
61 50 -8.0116
62 50 -8.07677
63 50 -7.93817
64 50 -8.2663
65 50 -8.7172
66 50 -8.85874
67 50 -9.01766
68 50 -9.24987
69 50 -9.71988
70 50 -10.0437
71 50 -10.7052
72 50 -10.6193
73 50 -11.0942
74 50 -11.3425
75 50 -12.1095
76 50 -12.5763
77 50 -12.7391
78 50 -12.7843
79 50 -13.1454
80 50 -13.3918
81 50 -13.909
82 50 -14.0562
83 50 -14.4521
84 50 -14.6494
85 50 -14.6732
86 50 -15.0945
87 50 -15.3611
88 50 -15.7499
89 50 -16.08
90 50 -16.4502
91 50 -16.8982
92 50 -17.3384
93 50 -18.1108
94 50 -19.4728
95 50 -20.7358
96 50 -22.5624
97 50 -25.0777
98 50 -23.3746
99 50 -94.7453
100 50 -94.7453
101 50 -94.7453
102 50 -94.7453
103 50 -94.7453
104 50 -94.7453
105 50 -94.7453
106 50 -94.7453
107 50 -94.7453
108 50 -94.7453
109 50 -94.7453
110 50 -94.7453
111 50 -94.7453
112 50 -94.7453
113 50 -94.7453
114 50 -94.7453
115 50 -94.7453
116 50 -94.7453
117 50 -94.7453
118 50 -94.7453
119 50 -94.7453
0 51 -94.7453
1 51 -94.7453
2 51 -94.7453
3 51 -94.7453
4 51 -94.7453
5 51 -94.7453
6 51 -94.7453
7 51 -94.7453
8 51 -94.7453
9 51 -94.7453
10 51 -94.7453
11 51 -94.7453
12 51 -94.7453
13 51 -94.7453
14 51 -94.7453
15 51 -94.7453
16 51 -94.7453
17 51 -94.7453
18 51 -94.7453
19 51 -94.7453
20 51 -94.7453
21 51 -94.7453
22 51 -20.727
23 51 -23.6912
24 51 -21.5217
25 51 -19.7498
26 51 -18.3029
27 51 -17.0864
28 51 -16.2214
29 51 -15.4653
30 51 -14.8402
31 51 -14.2187
32 51 -13.5263
33 51 -13.4037
34 51 -13.1066
35 51 -12.7149
36 51 -12.4684
37 51 -12.2502
38 51 -12.004
39 51 -12.2289
40 51 -12.0982
41 51 -12.2428
42 51 -11.8075
43 51 -11.9985
44 51 -11.8307
45 51 -11.5619
46 51 -11.1447
47 51 -11.4239
48 51 -11.4184
49 51 -11.1153
50 51 -10.9308
51 51 -10.1968
52 51 -9.39272
53 51 -8.45606
54 51 -7.96724
55 51 -7.48004
56 51 -7.07265
57 51 -6.98687
58 51 -7.55942
59 51 -7.47632
60 51 -7.80326
61 51 -7.74018
62 51 -7.84302
63 51 -7.74365
64 51 -8.3064
65 51 -8.23401
66 51 -8.65132
67 51 -9.00744
68 51 -9.05855
69 51 -9.6329
70 51 -9.86579
71 51 -10.2574
72 51 -10.4879
73 51 -10.6972
74 51 -11.3595
75 51 -12.052
76 51 -12.3344
77 51 -12.5221
78 51 -12.7425
79 51 -12.9542
80 51 -13.1097
81 51 -13.7324
82 51 -13.9113
83 51 -14.2455
84 51 -14.2002
85 51 -14.5777
86 51 -14.6441
87 51 -15.2051
88 51 -15.7378
89 51 -16.3588
90 51 -16.6122
91 51 -16.985
92 51 -17.3562
93 51 -18.3725
94 51 -19.5425
95 51 -20.9827
96 51 -22.633
97 51 -25.2844
98 51 -23.2919
99 51 -94.7453
100 51 -94.7453
101 51 -94.7453
102 51 -94.7453
103 51 -94.7453
104 51 -94.7453
105 51 -94.7453
106 51 -94.7453
107 51 -94.7453
108 51 -94.7453
109 51 -94.7453
110 51 -94.7453
111 51 -94.7453
112 51 -94.7453
113 51 -94.7453
114 51 -94.7453
115 51 -94.7453
116 51 -94.7453
117 51 -94.7453
118 51 -94.7453
119 51 -94.7453
0 52 -94.7453
1 52 -94.7453
2 52 -94.7453
3 52 -94.7453
4 52 -94.7453
5 52 -94.7453
6 52 -94.7453
7 52 -94.7453
8 52 -94.7453
9 52 -94.7453
10 52 -94.7453
11 52 -94.7453
12 52 -94.7453
13 52 -94.7453
14 52 -94.7453
15 52 -94.7453
16 52 -94.7453
17 52 -94.7453
18 52 -94.7453
19 52 -94.7453
20 52 -94.7453
21 52 -94.7453
22 52 -21.3381
23 52 -22.7501
24 52 -21.0279
25 52 -19.6771
26 52 -18.0732
27 52 -16.9248
28 52 -16.1417
29 52 -15.3033
30 52 -14.6258
31 52 -14.1862
32 52 -13.4038
33 52 -13.3999
34 52 -12.747
35 52 -12.1987
36 52 -12.319
37 52 -12.1465
38 52 -11.9868
39 52 -11.9719
40 52 -11.9402
41 52 -11.9301
42 52 -11.9467
43 52 -11.5658
44 52 -11.5206
45 52 -11.2288
46 52 -10.9868
47 52 -10.8152
48 52 -10.3844
49 52 -10.11
50 52 -9.67645
51 52 -9.21437
52 52 -8.20929
53 52 -7.8831
54 52 -7.4589
55 52 -7.31187
56 52 -6.88234
57 52 -7.15544
58 52 -7.16497
59 52 -7.40356
60 52 -7.58204
61 52 -7.6132
62 52 -7.56348
63 52 -7.64165
64 52 -8.22848
65 52 -8.19608
66 52 -8.71826
67 52 -8.68508
68 52 -8.93914
69 52 -9.24382
70 52 -9.78922
71 52 -10.0534
72 52 -10.1385
73 52 -10.3464
74 52 -11.0107
75 52 -11.614
76 52 -12.0862
77 52 -12.2051
78 52 -12.3462
79 52 -12.7343
80 52 -12.7201
81 52 -13.2074
82 52 -13.301
83 52 -13.7382
84 52 -14.0445
85 52 -14.7041
86 52 -14.8788
87 52 -15.303
88 52 -15.8796
89 52 -16.3074
90 52 -16.7915
91 52 -16.8314
92 52 -17.4905
93 52 -18.6193
94 52 -19.7449
95 52 -21.0655
96 52 -22.8418
97 52 -25.5147
98 52 -23.7162
99 52 -94.7453
100 52 -94.7453
101 52 -94.7453
102 52 -94.7453
103 52 -94.7453
104 52 -94.7453
105 52 -94.7453
106 52 -94.7453
107 52 -94.7453
108 52 -94.7453
109 52 -94.7453
110 52 -94.7453
111 52 -94.7453
112 52 -94.7453
113 52 -94.7453
114 52 -94.7453
115 52 -94.7453
116 52 -94.7453
117 52 -94.7453
118 52 -94.7453
119 52 -94.7453
0 53 -94.7453
1 53 -94.7453
2 53 -94.7453
3 53 -94.7453
4 53 -94.7453
5 53 -94.7453
6 53 -94.7453
7 53 -94.7453
8 53 -94.7453
9 53 -94.7453
10 53 -94.7453
11 53 -94.7453
12 53 -94.7453
13 53 -94.7453
14 53 -94.7453
15 53 -94.7453
16 53 -94.7453
17 53 -94.7453
18 53 -94.7453
19 53 -94.7453
20 53 -94.7453
21 53 -94.7453
22 53 -94.7453
23 53 -23.8644
24 53 -21.0603
25 53 -19.5361
26 53 -17.7377
27 53 -16.7765
28 53 -16.1654
29 53 -15.297
30 53 -14.5821
31 53 -13.7889
32 53 -13.2908
33 53 -12.9111
34 53 -12.7158
35 53 -12.3444
36 53 -12.072
37 53 -12.1059
38 53 -11.83
39 53 -11.6036
40 53 -11.6782
41 53 -11.7348
42 53 -11.4817
43 53 -11.0496
44 53 -10.8129
45 53 -10.4205
46 53 -10.1036
47 53 -9.89526
48 53 -9.7805
49 53 -9.35176
50 53 -9.00992
51 53 -8.36539
52 53 -7.63824
53 53 -7.51527
54 53 -7.09216
55 53 -6.58201
56 53 -6.89032
57 53 -6.96218
58 53 -7.00529
59 53 -7.02974
60 53 -7.06667
61 53 -7.25588
62 53 -7.43241
63 53 -7.69722
64 53 -7.99009
65 53 -8.07378
66 53 -8.35348
67 53 -8.61797
68 53 -8.6182
69 53 -8.75134
70 53 -9.2418
71 53 -9.75746
72 53 -9.97251
73 53 -10.3533
74 53 -10.6447
75 53 -11.1174
76 53 -11.593
77 53 -11.9566
78 53 -12.2236
79 53 -12.384
80 53 -12.9036
81 53 -13.0041
82 53 -13.4312
83 53 -13.5472
84 53 -13.8819
85 53 -14.2444
86 53 -14.5835
87 53 -14.9379
88 53 -15.5334
89 53 -16.109
90 53 -16.4253
91 53 -16.9276
92 53 -17.5255
93 53 -18.4137
94 53 -19.8619
95 53 -21.3748
96 53 -23.0692
97 53 -25.6374
98 53 -23.4433
99 53 -94.7453
100 53 -94.7453
101 53 -94.7453
102 53 -94.7453
103 53 -94.7453
104 53 -94.7453
105 53 -94.7453
106 53 -94.7453
107 53 -94.7453
108 53 -94.7453
109 53 -94.7453
110 53 -94.7453
111 53 -94.7453
112 53 -94.7453
113 53 -94.7453
114 53 -94.7453
115 53 -94.7453
116 53 -94.7453
117 53 -94.7453
118 53 -94.7453
119 53 -94.7453
0 54 -94.7453
1 54 -94.7453
2 54 -94.7453
3 54 -94.7453
4 54 -94.7453
5 54 -94.7453
6 54 -94.7453
7 54 -94.7453
8 54 -94.7453
9 54 -94.7453
10 54 -94.7453
11 54 -94.7453
12 54 -94.7453
13 54 -94.7453
14 54 -94.7453
15 54 -94.7453
16 54 -94.7453
17 54 -94.7453
18 54 -94.7453
19 54 -94.7453
20 54 -94.7453
21 54 -94.7453
22 54 -94.7453
23 54 -24.1165
24 54 -21.1019
25 54 -19.4642
26 54 -18.0873
27 54 -16.9373
28 54 -15.9692
29 54 -15.2479
30 54 -14.4138
31 54 -13.9325
32 54 -13.5279
33 54 -12.8709
34 54 -12.5415
35 54 -12.5298
36 54 -12.0495
37 54 -12.005
38 54 -11.72
39 54 -11.7325
40 54 -11.2799
41 54 -11.0754
42 54 -10.782
43 54 -10.832
44 54 -10.3297
45 54 -10.0924
46 54 -9.764
47 54 -9.43276
48 54 -9.31839
49 54 -9.11216
50 54 -8.48208
51 54 -7.76211
52 54 -7.19253
53 54 -6.96257
54 54 -6.9253
55 54 -6.73012
56 54 -6.74555
57 54 -6.96408
58 54 -6.94889
59 54 -6.84836
60 54 -6.91072
61 54 -7.09715
62 54 -6.92434
63 54 -7.52921
64 54 -7.69593
65 54 -7.65189
66 54 -7.9039
67 54 -8.17704
68 54 -8.27799
69 54 -8.43271
70 54 -8.98504
71 54 -9.36726
72 54 -9.62792
73 54 -9.79992
74 54 -10.3331
75 54 -10.8736
76 54 -11.1034
77 54 -11.5542
78 54 -11.63
79 54 -12.2428
80 54 -12.6999
81 54 -12.811
82 54 -13.2076
83 54 -13.222
84 54 -13.3579
85 54 -13.7349
86 54 -14.4378
87 54 -14.6824
88 54 -15.2902
89 54 -15.7987
90 54 -16.2379
91 54 -16.8989
92 54 -17.662
93 54 -18.6258
94 54 -20.0141
95 54 -21.3631
96 54 -23.4046
97 54 -25.8154
98 54 -22.8932
99 54 -94.7453
100 54 -94.7453
101 54 -94.7453
102 54 -94.7453
103 54 -94.7453
104 54 -94.7453
105 54 -94.7453
106 54 -94.7453
107 54 -94.7453
108 54 -94.7453
109 54 -94.7453
110 54 -94.7453
111 54 -94.7453
112 54 -94.7453
113 54 -94.7453
114 54 -94.7453
115 54 -94.7453
116 54 -94.7453
117 54 -94.7453
118 54 -94.7453
119 54 -94.7453
0 55 -94.7453
1 55 -94.7453
2 55 -94.7453
3 55 -94.7453
4 55 -94.7453
5 55 -94.7453
6 55 -94.7453
7 55 -94.7453
8 55 -94.7453
9 55 -94.7453
10 55 -94.7453
11 55 -94.7453
12 55 -94.7453
13 55 -94.7453
14 55 -94.7453
15 55 -94.7453
16 55 -94.7453
17 55 -94.7453
18 55 -94.7453
19 55 -94.7453
20 55 -94.7453
21 55 -94.7453
22 55 -94.7453
23 55 -23.9692
24 55 -21.3413
25 55 -19.5559
26 55 -17.9203
27 55 -16.8585
28 55 -15.9351
29 55 -15.2074
30 55 -14.2153
31 55 -13.6978
32 55 -13.2222
33 55 -12.8463
34 55 -12.7249
35 55 -12.3942
36 55 -11.8874
37 55 -11.7592
38 55 -11.7363
39 55 -11.3111
40 55 -10.9955
41 55 -10.7379
42 55 -10.5632
43 55 -10.4366
44 55 -10.1164
45 55 -10.0007
46 55 -9.44861
47 55 -8.83389
48 55 -8.97933
49 55 -8.6151
50 55 -8.07899
51 55 -7.33861
52 55 -7.17867
53 55 -6.7666
54 55 -6.66819
55 55 -6.63297
56 55 -6.52731
57 55 -6.94339
58 55 -6.78512
59 55 -6.55526
60 55 -6.61347
61 55 -6.70509
62 55 -6.70307
63 55 -6.71306
64 55 -7.05242
65 55 -7.38655
66 55 -7.64765
67 55 -7.92747
68 55 -7.7868
69 55 -8.13343
70 55 -8.54265
71 55 -9.00623
72 55 -9.45481
73 55 -9.77388
74 55 -10.0268
75 55 -10.6469
76 55 -10.6332
77 55 -11.1134
78 55 -11.3518
79 55 -12.0862
80 55 -12.1898
81 55 -12.4054
82 55 -12.9169
83 55 -12.9338
84 55 -13.2208
85 55 -13.8276
86 55 -14.3102
87 55 -14.2543
88 55 -15.2546
89 55 -15.7325
90 55 -16.4726
91 55 -16.8556
92 55 -17.4676
93 55 -18.7073
94 55 -19.9646
95 55 -21.8736
96 55 -23.4245
97 55 -25.7596
98 55 -22.2302
99 55 -94.7453
100 55 -94.7453
101 55 -94.7453
102 55 -94.7453
103 55 -94.7453
104 55 -94.7453
105 55 -94.7453
106 55 -94.7453
107 55 -94.7453
108 55 -94.7453
109 55 -94.7453
110 55 -94.7453
111 55 -94.7453
112 55 -94.7453
113 55 -94.7453
114 55 -94.7453
115 55 -94.7453
116 55 -94.7453
117 55 -94.7453
118 55 -94.7453
119 55 -94.7453
0 56 -94.7453
1 56 -94.7453
2 56 -94.7453
3 56 -94.7453
4 56 -94.7453
5 56 -94.7453
6 56 -94.7453
7 56 -94.7453
8 56 -94.7453
9 56 -94.7453
10 56 -94.7453
11 56 -94.7453
12 56 -94.7453
13 56 -94.7453
14 56 -94.7453
15 56 -94.7453
16 56 -94.7453
17 56 -94.7453
18 56 -94.7453
19 56 -94.7453
20 56 -94.7453
21 56 -94.7453
22 56 -94.7453
23 56 -23.7267
24 56 -21.4493
25 56 -19.5362
26 56 -18.0267
27 56 -16.8329
28 56 -15.7136
29 56 -14.906
30 56 -14.0282
31 56 -13.5685
32 56 -13.0439
33 56 -12.5539
34 56 -12.5355
35 56 -12.3256
36 56 -11.7889
37 56 -11.4612
38 56 -11.4803
39 56 -11.0116
40 56 -10.7845
41 56 -10.8888
42 56 -10.4829
43 56 -10.0951
44 56 -10.063
45 56 -9.57849
46 56 -9.39761
47 56 -8.98998
48 56 -8.6834
49 56 -8.44942
50 56 -7.92807
51 56 -7.4223
52 56 -6.95273
53 56 -6.88451
54 56 -6.67049
55 56 -6.64846
56 56 -6.28803
57 56 -6.4898
58 56 -6.46217
59 56 -6.6109
60 56 -6.49016
61 56 -6.59238
62 56 -6.56969
63 56 -6.61195
64 56 -6.85089
65 56 -7.16663
66 56 -7.48371
67 56 -7.67555
68 56 -7.67878
69 56 -7.8312
70 56 -8.40674
71 56 -8.83277
72 56 -9.13136
73 56 -9.64822
74 56 -9.83598
75 56 -10.2907
76 56 -10.3784
77 56 -10.9413
78 56 -11.198
79 56 -11.7417
80 56 -12.0329
81 56 -12.3402
82 56 -12.659
83 56 -12.8552
84 56 -13.1456
85 56 -13.8591
86 56 -14.0636
87 56 -14.5084
88 56 -15.0221
89 56 -15.7788
90 56 -16.0546
91 56 -16.9089
92 56 -17.8419
93 56 -18.6487
94 56 -19.8441
95 56 -21.7039
96 56 -23.6451
97 56 -26.0137
98 56 -21.9273
99 56 -94.7453
100 56 -94.7453
101 56 -94.7453
102 56 -94.7453
103 56 -94.7453
104 56 -94.7453
105 56 -94.7453
106 56 -94.7453
107 56 -94.7453
108 56 -94.7453
109 56 -94.7453
110 56 -94.7453
111 56 -94.7453
112 56 -94.7453
113 56 -94.7453
114 56 -94.7453
115 56 -94.7453
116 56 -94.7453
117 56 -94.7453
118 56 -94.7453
119 56 -94.7453
0 57 -94.7453
1 57 -94.7453
2 57 -94.7453
3 57 -94.7453
4 57 -94.7453
5 57 -94.7453
6 57 -94.7453
7 57 -94.7453
8 57 -94.7453
9 57 -94.7453
10 57 -94.7453
11 57 -94.7453
12 57 -94.7453
13 57 -94.7453
14 57 -94.7453
15 57 -94.7453
16 57 -94.7453
17 57 -94.7453
18 57 -94.7453
19 57 -94.7453
20 57 -94.7453
21 57 -94.7453
22 57 -94.7453
23 57 -23.9826
24 57 -21.5233
25 57 -19.5237
26 57 -18.1496
27 57 -16.7481
28 57 -15.7748
29 57 -14.8962
30 57 -13.9119
31 57 -13.8677
32 57 -13.1021
33 57 -12.614
34 57 -12.6401
35 57 -12.1359
36 57 -11.6565
37 57 -11.3423
38 57 -11.3414
39 57 -11.0281
40 57 -10.6278
41 57 -10.7078
42 57 -10.3959
43 57 -9.77566
44 57 -9.65151
45 57 -9.31588
46 57 -8.9625
47 57 -8.71662
48 57 -8.49425
49 57 -8.19312
50 57 -7.9401
51 57 -7.50931
52 57 -7.06253
53 57 -7.00666
54 57 -6.78555
55 57 -6.59372
56 57 -6.29508
57 57 -6.26809
58 57 -6.13513
59 57 -6.35628
60 57 -6.47517
61 57 -6.49543
62 57 -6.47821
63 57 -6.49563
64 57 -6.79993
65 57 -6.77772
66 57 -7.04255
67 57 -7.27022
68 57 -7.39753
69 57 -7.59259
70 57 -8.14546
71 57 -8.44313
72 57 -8.54748
73 57 -9.17014
74 57 -9.31023
75 57 -9.57659
76 57 -9.99216
77 57 -10.3245
78 57 -10.8858
79 57 -11.3729
80 57 -11.545
81 57 -12.1154
82 57 -12.4476
83 57 -12.6279
84 57 -12.9351
85 57 -13.6128
86 57 -14.0143
87 57 -14.2638
88 57 -14.8825
89 57 -15.3449
90 57 -15.8245
91 57 -16.7145
92 57 -17.7868
93 57 -18.6686
94 57 -19.9211
95 57 -21.3572
96 57 -23.8602
97 57 -26.211
98 57 -22.3535
99 57 -94.7453
100 57 -94.7453
101 57 -94.7453
102 57 -94.7453
103 57 -94.7453
104 57 -94.7453
105 57 -94.7453
106 57 -94.7453
107 57 -94.7453
108 57 -94.7453
109 57 -94.7453
110 57 -94.7453
111 57 -94.7453
112 57 -94.7453
113 57 -94.7453
114 57 -94.7453
115 57 -94.7453
116 57 -94.7453
117 57 -94.7453
118 57 -94.7453
119 57 -94.7453
0 58 -94.7453
1 58 -94.7453
2 58 -94.7453
3 58 -94.7453
4 58 -94.7453
5 58 -94.7453
6 58 -94.7453
7 58 -94.7453
8 58 -94.7453
9 58 -94.7453
10 58 -94.7453
11 58 -94.7453
12 58 -94.7453
13 58 -94.7453
14 58 -94.7453
15 58 -94.7453
16 58 -94.7453
17 58 -94.7453
18 58 -94.7453
19 58 -94.7453
20 58 -94.7453
21 58 -94.7453
22 58 -94.7453
23 58 -23.9545
24 58 -20.9778
25 58 -19.455
26 58 -18.052
27 58 -16.8096
28 58 -15.7525
29 58 -14.8202
30 58 -14.2194
31 58 -13.9001
32 58 -13.2542
33 58 -12.4559
34 58 -12.5523
35 58 -12.0146
36 58 -11.5497
37 58 -11.279
38 58 -11.1058
39 58 -11.0773
40 58 -10.4563
41 58 -10.2662
42 58 -9.88793
43 58 -9.5899
44 58 -9.44495
45 58 -9.06037
46 58 -8.53218
47 58 -8.36737
48 58 -8.34701
49 58 -8.03459
50 58 -7.60844
51 58 -7.38352
52 58 -7.16321
53 58 -6.94337
54 58 -6.32754
55 58 -6.41475
56 58 -6.23725
57 58 -6.28496
58 58 -6.2546
59 58 -6.24458
60 58 -6.24741
61 58 -5.99208
62 58 -6.29229
63 58 -6.35149
64 58 -6.538
65 58 -6.65293
66 58 -6.76002
67 58 -6.83208
68 58 -7.23938
69 58 -7.22803
70 58 -7.43034
71 58 -7.94269
72 58 -8.42425
73 58 -8.88444
74 58 -9.03331
75 58 -9.34714
76 58 -9.94703
77 58 -10.1983
78 58 -10.5851
79 58 -11.1955
80 58 -11.4805
81 58 -11.6538
82 58 -12.0034
83 58 -12.5255
84 58 -12.6607
85 58 -13.3677
86 58 -13.797
87 58 -14.0601
88 58 -14.7253
89 58 -15.2177
90 58 -15.741
91 58 -16.2397
92 58 -17.2556
93 58 -18.2243
94 58 -19.5202
95 58 -21.1993
96 58 -23.5963
97 58 -26.1385
98 58 -23.4824
99 58 -94.7453
100 58 -94.7453
101 58 -94.7453
102 58 -94.7453
103 58 -94.7453
104 58 -94.7453
105 58 -94.7453
106 58 -94.7453
107 58 -94.7453
108 58 -94.7453
109 58 -94.7453
110 58 -94.7453
111 58 -94.7453
112 58 -94.7453
113 58 -94.7453
114 58 -94.7453
115 58 -94.7453
116 58 -94.7453
117 58 -94.7453
118 58 -94.7453
119 58 -94.7453
0 59 -94.7453
1 59 -94.7453
2 59 -94.7453
3 59 -94.7453
4 59 -94.7453
5 59 -94.7453
6 59 -94.7453
7 59 -94.7453
8 59 -94.7453
9 59 -94.7453
10 59 -94.7453
11 59 -94.7453
12 59 -94.7453
13 59 -94.7453
14 59 -94.7453
15 59 -94.7453
16 59 -94.7453
17 59 -94.7453
18 59 -94.7453
19 59 -94.7453
20 59 -94.7453
21 59 -94.7453
22 59 -94.7453
23 59 -24.329
24 59 -20.918
25 59 -19.4237
26 59 -18.0057
27 59 -17.0864
28 59 -15.7179
29 59 -14.9889
30 59 -14.2827
31 59 -13.8067
32 59 -13.295
33 59 -12.4966
34 59 -12.2195
35 59 -12.15
36 59 -11.394
37 59 -11.0759
38 59 -11.1463
39 59 -10.95
40 59 -10.4654
41 59 -10.0585
42 59 -9.73918
43 59 -9.47018
44 59 -9.21065
45 59 -8.78009
46 59 -8.28437
47 59 -8.30929
48 59 -7.86406
49 59 -7.5966
50 59 -7.11558
51 59 -6.91295
52 59 -6.92547
53 59 -6.34469
54 59 -6.45869
55 59 -6.33916
56 59 -6.21868
57 59 -5.89864
58 59 -6.07857
59 59 -6.22131
60 59 -5.90052
61 59 -5.90663
62 59 -6.11721
63 59 -6.13602
64 59 -6.34632
65 59 -6.09631
66 59 -6.42736
67 59 -6.33176
68 59 -6.69014
69 59 -7.11553
70 59 -7.09943
71 59 -7.38623
72 59 -7.82426
73 59 -8.5403
74 59 -8.49409
75 59 -9.26408
76 59 -9.70953
77 59 -10.1286
78 59 -10.4774
79 59 -10.781
80 59 -11.1205
81 59 -11.3896
82 59 -11.6994
83 59 -12.1723
84 59 -12.5255
85 59 -13.2896
86 59 -13.424
87 59 -14.0579
88 59 -14.4682
89 59 -14.9367
90 59 -15.4758
91 59 -16.1194
92 59 -16.8874
93 59 -17.9887
94 59 -19.2317
95 59 -21.1282
96 59 -23.1503
97 59 -25.4645
98 59 -23.4841
99 59 -94.7453
100 59 -94.7453
101 59 -94.7453
102 59 -94.7453
103 59 -94.7453
104 59 -94.7453
105 59 -94.7453
106 59 -94.7453
107 59 -94.7453
108 59 -94.7453
109 59 -94.7453
110 59 -94.7453
111 59 -94.7453
112 59 -94.7453
113 59 -94.7453
114 59 -94.7453
115 59 -94.7453
116 59 -94.7453
117 59 -94.7453
118 59 -94.7453
119 59 -94.7453
0 60 -94.7453
1 60 -94.7453
2 60 -94.7453
3 60 -94.7453
4 60 -94.7453
5 60 -94.7453
6 60 -94.7453
7 60 -94.7453
8 60 -94.7453
9 60 -94.7453
10 60 -94.7453
11 60 -94.7453
12 60 -94.7453
13 60 -94.7453
14 60 -94.7453
15 60 -94.7453
16 60 -94.7453
17 60 -94.7453
18 60 -94.7453
19 60 -94.7453
20 60 -94.7453
21 60 -94.7453
22 60 -94.7453
23 60 -24.1276
24 60 -20.9595
25 60 -19.4146
26 60 -18.1712
27 60 -17.0107
28 60 -15.8012
29 60 -14.9279
30 60 -14.3483
31 60 -13.6275
32 60 -13.2805
33 60 -12.8642
34 60 -12.3815
35 60 -11.9406
36 60 -11.5102
37 60 -11.0358
38 60 -10.8258
39 60 -10.4796
40 60 -10.4197
41 60 -9.70905
42 60 -9.60297
43 60 -9.41444
44 60 -9.13394
45 60 -8.62983
46 60 -8.1904
47 60 -8.11003
48 60 -7.52859
49 60 -7.36479
50 60 -7.26582
51 60 -6.8426
52 60 -6.73401
53 60 -6.42968
54 60 -6.39565
55 60 -6.31484
56 60 -6.00849
57 60 -5.88621
58 60 -5.86961
59 60 -5.61193
60 60 -5.56386
61 60 -5.75973
62 60 -5.55349
63 60 -5.68207
64 60 -5.84752
65 60 -6.00774
66 60 -6.00509
67 60 -6.30362
68 60 -6.13099
69 60 -6.6837
70 60 -6.86181
71 60 -6.87993
72 60 -7.17626
73 60 -7.96701
74 60 -8.5628
75 60 -8.9404
76 60 -9.4249
77 60 -9.8201
78 60 -10.138
79 60 -10.1851
80 60 -10.741
81 60 -11.1411
82 60 -11.5839
83 60 -11.6937
84 60 -12.2457
85 60 -12.7217
86 60 -13.127
87 60 -13.4265
88 60 -14.0104
89 60 -14.6555
90 60 -15.2154
91 60 -15.7651
92 60 -16.6432
93 60 -17.8792
94 60 -19.1283
95 60 -20.5964
96 60 -22.1502
97 60 -24.6771
98 60 -23.336
99 60 -94.7453
100 60 -94.7453
101 60 -94.7453
102 60 -94.7453
103 60 -94.7453
104 60 -94.7453
105 60 -94.7453
106 60 -94.7453
107 60 -94.7453
108 60 -94.7453
109 60 -94.7453
110 60 -94.7453
111 60 -94.7453
112 60 -94.7453
113 60 -94.7453
114 60 -94.7453
115 60 -94.7453
116 60 -94.7453
117 60 -94.7453
118 60 -94.7453
119 60 -94.7453
0 61 -94.7453
1 61 -94.7453
2 61 -94.7453
3 61 -94.7453
4 61 -94.7453
5 61 -94.7453
6 61 -94.7453
7 61 -94.7453
8 61 -94.7453
9 61 -94.7453
10 61 -94.7453
11 61 -94.7453
12 61 -94.7453
13 61 -94.7453
14 61 -94.7453
15 61 -94.7453
16 61 -94.7453
17 61 -94.7453
18 61 -94.7453
19 61 -94.7453
20 61 -94.7453
21 61 -94.7453
22 61 -94.7453
23 61 -23.8682
24 61 -21.5637
25 61 -19.5228
26 61 -17.9432
27 61 -17.2288
28 61 -16.254
29 61 -15.3271
30 61 -14.69
31 61 -13.8657
32 61 -13.3511
33 61 -12.5798
34 61 -12.1878
35 61 -11.7527
36 61 -11.4323
37 61 -11.0491
38 61 -10.7133
39 61 -10.3047
40 61 -10.0543
41 61 -9.60968
42 61 -9.50516
43 61 -9.02903
44 61 -8.9229
45 61 -8.64662
46 61 -8.31088
47 61 -7.80801
48 61 -7.507
49 61 -7.04775
50 61 -6.92091
51 61 -6.85135
52 61 -6.65872
53 61 -6.47255
54 61 -6.22698
55 61 -6.01618
56 61 -5.73766
57 61 -5.75707
58 61 -5.30472
59 61 -5.31211
60 61 -5.58468
61 61 -5.64832
62 61 -5.40494
63 61 -5.49544
64 61 -5.59143
65 61 -5.60907
66 61 -5.9763
67 61 -6.022
68 61 -6.19016
69 61 -6.3304
70 61 -6.57518
71 61 -6.5852
72 61 -7.11068
73 61 -7.71307
74 61 -8.02206
75 61 -8.89781
76 61 -8.94671
77 61 -9.49325
78 61 -9.69411
79 61 -10.0232
80 61 -10.4923
81 61 -10.7163
82 61 -11.4084
83 61 -11.2521
84 61 -11.74
85 61 -12.1872
86 61 -12.9173
87 61 -13.3505
88 61 -13.6721
89 61 -13.8839
90 61 -14.8692
91 61 -15.5323
92 61 -16.4265
93 61 -17.0496
94 61 -18.1798
95 61 -19.714
96 61 -21.6634
97 61 -23.8922
98 61 -22.4513
99 61 -94.7453
100 61 -94.7453
101 61 -94.7453
102 61 -94.7453
103 61 -94.7453
104 61 -94.7453
105 61 -94.7453
106 61 -94.7453
107 61 -94.7453
108 61 -94.7453
109 61 -94.7453
110 61 -94.7453
111 61 -94.7453
112 61 -94.7453
113 61 -94.7453
114 61 -94.7453
115 61 -94.7453
116 61 -94.7453
117 61 -94.7453
118 61 -94.7453
119 61 -94.7453
0 62 -94.7453
1 62 -94.7453
2 62 -94.7453
3 62 -94.7453
4 62 -94.7453
5 62 -94.7453
6 62 -94.7453
7 62 -94.7453
8 62 -94.7453
9 62 -94.7453
10 62 -94.7453
11 62 -94.7453
12 62 -94.7453
13 62 -94.7453
14 62 -94.7453
15 62 -94.7453
16 62 -94.7453
17 62 -94.7453
18 62 -94.7453
19 62 -94.7453
20 62 -94.7453
21 62 -94.7453
22 62 -94.7453
23 62 -24.9542
24 62 -21.451
25 62 -19.5429
26 62 -18.3211
27 62 -17.1024
28 62 -16.1241
29 62 -15.3179
30 62 -14.5737
31 62 -13.9943
32 62 -13.3379
33 62 -12.5094
34 62 -12.1088
35 62 -11.3239
36 62 -10.9981
37 62 -10.9677
38 62 -10.2969
39 62 -9.95794
40 62 -9.68641
41 62 -9.51644
42 62 -9.38772
43 62 -9.2442
44 62 -8.74754
45 62 -8.34741
46 62 -8.22408
47 62 -7.78546
48 62 -7.25304
49 62 -6.91254
50 62 -6.73349
51 62 -6.69023
52 62 -6.51124
53 62 -6.1923
54 62 -6.1254
55 62 -5.68254
56 62 -5.78563
57 62 -5.73647
58 62 -5.32924
59 62 -5.28514
60 62 -5.02235
61 62 -5.38317
62 62 -5.41108
63 62 -5.55246
64 62 -5.45318
65 62 -5.72433
66 62 -5.64511
67 62 -5.55687
68 62 -5.91337
69 62 -6.08949
70 62 -6.14154
71 62 -6.51322
72 62 -6.62206
73 62 -7.09697
74 62 -7.50601
75 62 -8.19876
76 62 -8.44235
77 62 -8.9918
78 62 -9.45439
79 62 -9.8967
80 62 -10.3441
81 62 -10.3166
82 62 -11.0072
83 62 -11.0529
84 62 -11.2082
85 62 -11.8971
86 62 -12.3851
87 62 -12.924
88 62 -13.3872
89 62 -13.713
90 62 -14.7615
91 62 -15.317
92 62 -15.8972
93 62 -16.4031
94 62 -17.8356
95 62 -19.3673
96 62 -20.7329
97 62 -22.7971
98 62 -21.7856
99 62 -94.7453
100 62 -94.7453
101 62 -94.7453
102 62 -94.7453
103 62 -94.7453
104 62 -94.7453
105 62 -94.7453
106 62 -94.7453
107 62 -94.7453
108 62 -94.7453
109 62 -94.7453
110 62 -94.7453
111 62 -94.7453
112 62 -94.7453
113 62 -94.7453
114 62 -94.7453
115 62 -94.7453
116 62 -94.7453
117 62 -94.7453
118 62 -94.7453
119 62 -94.7453
0 63 -94.7453
1 63 -94.7453
2 63 -94.7453
3 63 -94.7453
4 63 -94.7453
5 63 -94.7453
6 63 -94.7453
7 63 -94.7453
8 63 -94.7453
9 63 -94.7453
10 63 -94.7453
11 63 -94.7453
12 63 -94.7453
13 63 -94.7453
14 63 -94.7453
15 63 -94.7453
16 63 -94.7453
17 63 -94.7453
18 63 -94.7453
19 63 -94.7453
20 63 -94.7453
21 63 -94.7453
22 63 -94.7453
23 63 -26.4119
24 63 -21.3239
25 63 -19.5204
26 63 -18.4051
27 63 -17.3819
28 63 -16.2108
29 63 -15.5559
30 63 -14.6525
31 63 -13.7194
32 63 -13.407
33 63 -12.7835
34 63 -12.4236
35 63 -11.5631
36 63 -11.2403
37 63 -10.85
38 63 -10.2688
39 63 -9.99088
40 63 -9.37315
41 63 -9.18502
42 63 -9.24552
43 63 -8.84988
44 63 -8.80168
45 63 -8.25037
46 63 -7.99723
47 63 -7.55287
48 63 -7.31825
49 63 -7.02915
50 63 -6.74708
51 63 -6.35271
52 63 -6.33044
53 63 -6.11302
54 63 -6.01429
55 63 -5.69178
56 63 -5.59873
57 63 -5.43184
58 63 -4.98173
59 63 -5.22748
60 63 -5.37117
61 63 -5.28919
62 63 -5.19758
63 63 -5.11182
64 63 -5.14674
65 63 -5.30843
66 63 -5.33533
67 63 -5.18955
68 63 -5.47088
69 63 -6.06791
70 63 -5.89824
71 63 -6.48002
72 63 -6.30267
73 63 -6.69068
74 63 -7.12884
75 63 -7.86719
76 63 -8.03179
77 63 -8.55853
78 63 -9.08481
79 63 -9.38043
80 63 -10.2321
81 63 -10.328
82 63 -10.6968
83 63 -10.893
84 63 -11.2784
85 63 -11.6565
86 63 -11.897
87 63 -12.2506
88 63 -12.7481
89 63 -13.7311
90 63 -14.3546
91 63 -15.0636
92 63 -15.4601
93 63 -16.1574
94 63 -17.0594
95 63 -18.3517
96 63 -19.7449
97 63 -21.7299
98 63 -20.8438
99 63 -94.7453
100 63 -94.7453
101 63 -94.7453
102 63 -94.7453
103 63 -94.7453
104 63 -94.7453
105 63 -94.7453
106 63 -94.7453
107 63 -94.7453
108 63 -94.7453
109 63 -94.7453
110 63 -94.7453
111 63 -94.7453
112 63 -94.7453
113 63 -94.7453
114 63 -94.7453
115 63 -94.7453
116 63 -94.7453
117 63 -94.7453
118 63 -94.7453
119 63 -94.7453
0 64 -94.7453
1 64 -94.7453
2 64 -94.7453
3 64 -94.7453
4 64 -94.7453
5 64 -94.7453
6 64 -94.7453
7 64 -94.7453
8 64 -94.7453
9 64 -94.7453
10 64 -94.7453
11 64 -94.7453
12 64 -94.7453
13 64 -94.7453
14 64 -94.7453
15 64 -94.7453
16 64 -94.7453
17 64 -94.7453
18 64 -94.7453
19 64 -94.7453
20 64 -94.7453
21 64 -94.7453
22 64 -94.7453
23 64 -27.0119
24 64 -20.7472
25 64 -19.0029
26 64 -18.1479
27 64 -17.3196
28 64 -16.1705
29 64 -15.4767
30 64 -14.594
31 64 -13.7319
32 64 -13.2056
33 64 -12.9375
34 64 -12.354
35 64 -11.802
36 64 -11.3449
37 64 -10.866
38 64 -10.4409
39 64 -10.189
40 64 -9.72197
41 64 -9.29107
42 64 -9.15248
43 64 -8.61254
44 64 -8.60945
45 64 -8.21906
46 64 -7.91162
47 64 -7.39943
48 64 -7.24585
49 64 -6.86847
50 64 -6.37592
51 64 -6.27695
52 64 -6.02976
53 64 -5.97899
54 64 -5.63474
55 64 -5.41332
56 64 -5.42592
57 64 -5.19513
58 64 -4.88956
59 64 -5.07358
60 64 -5.14263
61 64 -5.04797
62 64 -4.76156
63 64 -4.7377
64 64 -4.83771
65 64 -4.95701
66 64 -4.96848
67 64 -4.80083
68 64 -5.25447
69 64 -5.51335
70 64 -5.59325
71 64 -5.87318
72 64 -6.23909
73 64 -6.4894
74 64 -6.82818
75 64 -7.34913
76 64 -7.7489
77 64 -8.13345
78 64 -8.85012
79 64 -9.1529
80 64 -9.92664
81 64 -10.3657
82 64 -10.4407
83 64 -10.5427
84 64 -11.1539
85 64 -11.4935
86 64 -11.999
87 64 -12.3094
88 64 -12.4587
89 64 -12.963
90 64 -13.532
91 64 -14.4729
92 64 -15.2128
93 64 -15.7632
94 64 -16.5779
95 64 -17.4328
96 64 -18.363
97 64 -19.9301
98 64 -19.9037
99 64 -94.7453
100 64 -94.7453
101 64 -94.7453
102 64 -94.7453
103 64 -94.7453
104 64 -94.7453
105 64 -94.7453
106 64 -94.7453
107 64 -94.7453
108 64 -94.7453
109 64 -94.7453
110 64 -94.7453
111 64 -94.7453
112 64 -94.7453
113 64 -94.7453
114 64 -94.7453
115 64 -94.7453
116 64 -94.7453
117 64 -94.7453
118 64 -94.7453
119 64 -94.7453
0 65 -94.7453
1 65 -94.7453
2 65 -94.7453
3 65 -94.7453
4 65 -94.7453
5 65 -94.7453
6 65 -94.7453
7 65 -94.7453
8 65 -94.7453
9 65 -94.7453
10 65 -94.7453
11 65 -94.7453
12 65 -94.7453
13 65 -94.7453
14 65 -94.7453
15 65 -94.7453
16 65 -94.7453
17 65 -94.7453
18 65 -94.7453
19 65 -94.7453
20 65 -94.7453
21 65 -94.7453
22 65 -94.7453
23 65 -94.7453
24 65 -21.4705
25 65 -19.5085
26 65 -18.354
27 65 -17.1277
28 65 -16.2845
29 65 -15.5207
30 65 -14.6601
31 65 -13.7822
32 65 -13.4494
33 65 -12.9493
34 65 -12.3195
35 65 -11.833
36 65 -11.3569
37 65 -11.0197
38 65 -10.5268
39 65 -10.0036
40 65 -9.62229
41 65 -9.4353
42 65 -9.14973
43 65 -8.63196
44 65 -8.54119
45 65 -8.06915
46 65 -7.60376
47 65 -7.31686
48 65 -7.05719
49 65 -6.72671
50 65 -6.46211
51 65 -6.35502
52 65 -6.13777
53 65 -5.70217
54 65 -5.61134
55 65 -5.36682
56 65 -5.17279
57 65 -5.08477
58 65 -4.96667
59 65 -4.9219
60 65 -4.73273
61 65 -4.96272
62 65 -4.59388
63 65 -4.30945
64 65 -4.46005
65 65 -4.62966
66 65 -4.58643
67 65 -4.43547
68 65 -4.81821
69 65 -5.12628
70 65 -5.21786
71 65 -5.31694
72 65 -5.67554
73 65 -5.86364
74 65 -6.12606
75 65 -6.8194
76 65 -7.11236
77 65 -7.55766
78 65 -8.22829
79 65 -8.62151
80 65 -9.15345
81 65 -9.75704
82 65 -10.2346
83 65 -10.5268
84 65 -10.9028
85 65 -11.1672
86 65 -11.4096
87 65 -12.2714
88 65 -12.5812
89 65 -12.7475
90 65 -13.419
91 65 -14.0236
92 65 -14.1641
93 65 -15.2616
94 65 -16.2703
95 65 -16.6731
96 65 -17.6323
97 65 -18.6805
98 65 -17.7421
99 65 -94.7453
100 65 -94.7453
101 65 -94.7453
102 65 -94.7453
103 65 -94.7453
104 65 -94.7453
105 65 -94.7453
106 65 -94.7453
107 65 -94.7453
108 65 -94.7453
109 65 -94.7453
110 65 -94.7453
111 65 -94.7453
112 65 -94.7453
113 65 -94.7453
114 65 -94.7453
115 65 -94.7453
116 65 -94.7453
117 65 -94.7453
118 65 -94.7453
119 65 -94.7453
0 66 -94.7453
1 66 -94.7453
2 66 -94.7453
3 66 -94.7453
4 66 -94.7453
5 66 -94.7453
6 66 -94.7453
7 66 -94.7453
8 66 -94.7453
9 66 -94.7453
10 66 -94.7453
11 66 -94.7453
12 66 -94.7453
13 66 -94.7453
14 66 -94.7453
15 66 -94.7453
16 66 -94.7453
17 66 -94.7453
18 66 -94.7453
19 66 -94.7453
20 66 -94.7453
21 66 -94.7453
22 66 -94.7453
23 66 -94.7453
24 66 -21.9757
25 66 -19.4745
26 66 -18.3322
27 66 -17.4149
28 66 -16.3758
29 66 -15.6738
30 66 -14.4929
31 66 -13.9265
32 66 -13.5273
33 66 -13.0444
34 66 -12.5126
35 66 -12.1417
36 66 -11.847
37 66 -11.2865
38 66 -10.6334
39 66 -9.92112
40 66 -9.54094
41 66 -9.18175
42 66 -8.92059
43 66 -8.62007
44 66 -8.18221
45 66 -7.7623
46 66 -7.38916
47 66 -6.92735
48 66 -6.99954
49 66 -6.47499
50 66 -6.2161
51 66 -6.07587
52 66 -5.96856
53 66 -5.56461
54 66 -5.13358
55 66 -4.84119
56 66 -4.87458
57 66 -4.87774
58 66 -4.81687
59 66 -4.93233
60 66 -4.88408
61 66 -4.73071
62 66 -4.59402
63 66 -4.22193
64 66 -4.23109
65 66 -4.1291
66 66 -4.03684
67 66 -3.92541
68 66 -4.1859
69 66 -4.32777
70 66 -4.67201
71 66 -5.05969
72 66 -5.47962
73 66 -5.64843
74 66 -5.79749
75 66 -6.28959
76 66 -6.60623
77 66 -7.23801
78 66 -7.69308
79 66 -8.08485
80 66 -8.86214
81 66 -9.5752
82 66 -9.90188
83 66 -10.1078
84 66 -10.5456
85 66 -10.9294
86 66 -11.3967
87 66 -11.6249
88 66 -12.2903
89 66 -12.5076
90 66 -13.0112
91 66 -13.706
92 66 -14.5148
93 66 -15.1847
94 66 -15.9628
95 66 -16.4818
96 66 -17.7661
97 66 -18.2104
98 66 -18.9023
99 66 -94.7453
100 66 -94.7453
101 66 -94.7453
102 66 -94.7453
103 66 -94.7453
104 66 -94.7453
105 66 -94.7453
106 66 -94.7453
107 66 -94.7453
108 66 -94.7453
109 66 -94.7453
110 66 -94.7453
111 66 -94.7453
112 66 -94.7453
113 66 -94.7453
114 66 -94.7453
115 66 -94.7453
116 66 -94.7453
117 66 -94.7453
118 66 -94.7453
119 66 -94.7453
0 67 -94.7453
1 67 -94.7453
2 67 -94.7453
3 67 -94.7453
4 67 -94.7453
5 67 -94.7453
6 67 -94.7453
7 67 -94.7453
8 67 -94.7453
9 67 -94.7453
10 67 -94.7453
11 67 -94.7453
12 67 -94.7453
13 67 -94.7453
14 67 -94.7453
15 67 -94.7453
16 67 -94.7453
17 67 -94.7453
18 67 -94.7453
19 67 -94.7453
20 67 -94.7453
21 67 -94.7453
22 67 -94.7453
23 67 -94.7453
24 67 -22.893
25 67 -19.8632
26 67 -18.3266
27 67 -17.4314
28 67 -16.7005
29 67 -15.5063
30 67 -14.7505
31 67 -14.0343
32 67 -13.6617
33 67 -13.2062
34 67 -12.5503
35 67 -12.1624
36 67 -12.0309
37 67 -11.4129
38 67 -10.6925
39 67 -9.96449
40 67 -9.37321
41 67 -9.1053
42 67 -8.89484
43 67 -8.627
44 67 -7.89438
45 67 -7.55162
46 67 -7.26176
47 67 -6.92568
48 67 -6.78507
49 67 -6.39273
50 67 -6.2989
51 67 -5.75277
52 67 -5.57529
53 67 -5.4751
54 67 -5.16216
55 67 -4.76179
56 67 -4.69779
57 67 -4.52227
58 67 -4.63067
59 67 -4.48576
60 67 -4.64632
61 67 -4.48945
62 67 -4.33638
63 67 -3.79585
64 67 -4.10896
65 67 -4.17894
66 67 -3.91003
67 67 -3.85736
68 67 -4.0468
69 67 -4.03771
70 67 -4.38167
71 67 -4.68594
72 67 -4.94981
73 67 -5.22556
74 67 -5.62708
75 67 -6.14449
76 67 -6.74348
77 67 -7.18998
78 67 -7.50115
79 67 -7.92467
80 67 -8.63464
81 67 -9.33557
82 67 -9.47372
83 67 -9.93816
84 67 -10.396
85 67 -10.523
86 67 -10.9055
87 67 -11.5501
88 67 -11.6979
89 67 -12.2896
90 67 -12.7411
91 67 -13.2102
92 67 -14.4068
93 67 -15.491
94 67 -16.1579
95 67 -17.302
96 67 -20.026
97 67 -16.782
98 67 -94.7453
99 67 -94.7453
100 67 -94.7453
101 67 -94.7453
102 67 -94.7453
103 67 -94.7453
104 67 -94.7453
105 67 -94.7453
106 67 -94.7453
107 67 -94.7453
108 67 -94.7453
109 67 -94.7453
110 67 -94.7453
111 67 -94.7453
112 67 -94.7453
113 67 -94.7453
114 67 -94.7453
115 67 -94.7453
116 67 -94.7453
117 67 -94.7453
118 67 -94.7453
119 67 -94.7453
0 68 -94.7453
1 68 -94.7453
2 68 -94.7453
3 68 -94.7453
4 68 -94.7453
5 68 -94.7453
6 68 -94.7453
7 68 -94.7453
8 68 -94.7453
9 68 -94.7453
10 68 -94.7453
11 68 -94.7453
12 68 -94.7453
13 68 -94.7453
14 68 -94.7453
15 68 -94.7453
16 68 -94.7453
17 68 -94.7453
18 68 -94.7453
19 68 -94.7453
20 68 -94.7453
21 68 -94.7453
22 68 -94.7453
23 68 -94.7453
24 68 -24.0109
25 68 -19.7454
26 68 -18.4168
27 68 -17.525
28 68 -16.6218
29 68 -15.4492
30 68 -14.803
31 68 -14.0945
32 68 -13.644
33 68 -13.1226
34 68 -12.7587
35 68 -12.2799
36 68 -11.966
37 68 -11.5356
38 68 -10.5544
39 68 -9.81995
40 68 -9.26486
41 68 -8.85784
42 68 -8.51704
43 68 -8.21356
44 68 -7.61633
45 68 -7.42326
46 68 -7.07128
47 68 -6.93792
48 68 -6.51546
49 68 -6.16416
50 68 -5.90507
51 68 -5.6475
52 68 -5.30934
53 68 -5.10898
54 68 -5.26696
55 68 -4.71985
56 68 -4.55184
57 68 -4.28748
58 68 -4.30654
59 68 -4.09383
60 68 -4.16351
61 68 -4.22431
62 68 -4.20635
63 68 -3.96741
64 68 -3.97362
65 68 -3.80925
66 68 -3.70456
67 68 -3.48997
68 68 -4.04537
69 68 -4.16072
70 68 -4.11228
71 68 -4.544
72 68 -4.66506
73 68 -4.97594
74 68 -5.46816
75 68 -5.61225
76 68 -6.25271
77 68 -6.68436
78 68 -7.38709
79 68 -7.37837
80 68 -8.34634
81 68 -8.82066
82 68 -9.31712
83 68 -9.58659
84 68 -10.3619
85 68 -10.4236
86 68 -10.6266
87 68 -11.1389
88 68 -11.8979
89 68 -12.3188
90 68 -12.5701
91 68 -13.1828
92 68 -14.2064
93 68 -15.145
94 68 -16.3837
95 68 -17.858
96 68 -20.5864
97 68 -17.1075
98 68 -94.7453
99 68 -94.7453
100 68 -94.7453
101 68 -94.7453
102 68 -94.7453
103 68 -94.7453
104 68 -94.7453
105 68 -94.7453
106 68 -94.7453
107 68 -94.7453
108 68 -94.7453
109 68 -94.7453
110 68 -94.7453
111 68 -94.7453
112 68 -94.7453
113 68 -94.7453
114 68 -94.7453
115 68 -94.7453
116 68 -94.7453
117 68 -94.7453
118 68 -94.7453
119 68 -94.7453
0 69 -94.7453
1 69 -94.7453
2 69 -94.7453
3 69 -94.7453
4 69 -94.7453
5 69 -94.7453
6 69 -94.7453
7 69 -94.7453
8 69 -94.7453
9 69 -94.7453
10 69 -94.7453
11 69 -94.7453
12 69 -94.7453
13 69 -94.7453
14 69 -94.7453
15 69 -94.7453
16 69 -94.7453
17 69 -94.7453
18 69 -94.7453
19 69 -94.7453
20 69 -94.7453
21 69 -94.7453
22 69 -94.7453
23 69 -94.7453
24 69 -24.0305
25 69 -19.7011
26 69 -18.2077
27 69 -17.0407
28 69 -16.6731
29 69 -15.8415
30 69 -15.3389
31 69 -14.5163
32 69 -13.686
33 69 -13.3404
34 69 -12.6751
35 69 -12.4372
36 69 -11.8283
37 69 -11.4559
38 69 -10.5196
39 69 -9.55101
40 69 -9.02733
41 69 -8.57551
42 69 -8.16683
43 69 -7.73486
44 69 -7.32739
45 69 -7.01239
46 69 -6.81505
47 69 -6.73374
48 69 -6.38216
49 69 -6.04601
50 69 -5.55346
51 69 -5.49099
52 69 -5.23633
53 69 -4.8269
54 69 -4.90977
55 69 -4.48894
56 69 -4.38283
57 69 -4.06332
58 69 -3.95344
59 69 -3.89767
60 69 -3.74809
61 69 -4.04198
62 69 -3.92271
63 69 -3.55516
64 69 -3.26121
65 69 -3.41867
66 69 -3.47399
67 69 -3.31039
68 69 -3.7266
69 69 -3.941
70 69 -4.14154
71 69 -4.17086
72 69 -4.10588
73 69 -4.62768
74 69 -4.94796
75 69 -5.49234
76 69 -5.88134
77 69 -6.42758
78 69 -6.76094
79 69 -7.12157
80 69 -7.83379
81 69 -8.50262
82 69 -9.1061
83 69 -9.41869
84 69 -9.77045
85 69 -10.0881
86 69 -10.6046
87 69 -10.9932
88 69 -11.5845
89 69 -12.3259
90 69 -12.749
91 69 -13.0136
92 69 -14.0993
93 69 -15.095
94 69 -16.5746
95 69 -18.0041
96 69 -20.7191
97 69 -17.8106
98 69 -94.7453
99 69 -94.7453
100 69 -94.7453
101 69 -94.7453
102 69 -94.7453
103 69 -94.7453
104 69 -94.7453
105 69 -94.7453
106 69 -94.7453
107 69 -94.7453
108 69 -94.7453
109 69 -94.7453
110 69 -94.7453
111 69 -94.7453
112 69 -94.7453
113 69 -94.7453
114 69 -94.7453
115 69 -94.7453
116 69 -94.7453
117 69 -94.7453
118 69 -94.7453
119 69 -94.7453
0 70 -94.7453
1 70 -94.7453
2 70 -94.7453
3 70 -94.7453
4 70 -94.7453
5 70 -94.7453
6 70 -94.7453
7 70 -94.7453
8 70 -94.7453
9 70 -94.7453
10 70 -94.7453
11 70 -94.7453
12 70 -94.7453
13 70 -94.7453
14 70 -94.7453
15 70 -94.7453
16 70 -94.7453
17 70 -94.7453
18 70 -94.7453
19 70 -94.7453
20 70 -94.7453
21 70 -94.7453
22 70 -94.7453
23 70 -94.7453
24 70 -94.7453
25 70 -20.221
26 70 -18.4299
27 70 -17.3009
28 70 -16.925
29 70 -15.9184
30 70 -15.4377
31 70 -14.9471
32 70 -14.1694
33 70 -13.4424
34 70 -12.6866
35 70 -12.1125
36 70 -11.8097
37 70 -11.394
38 70 -10.3675
39 70 -10.1911
40 70 -9.38681
41 70 -8.80993
42 70 -7.87933
43 70 -7.45086
44 70 -7.16305
45 70 -6.9648
46 70 -6.70277
47 70 -6.32195
48 70 -6.07781
49 70 -5.54416
50 70 -5.43216
51 70 -5.40085
52 70 -5.11056
53 70 -4.82306
54 70 -4.64549
55 70 -4.2483
56 70 -4.28213
57 70 -4.01656
58 70 -3.6975
59 70 -3.56025
60 70 -3.38595
61 70 -3.56656
62 70 -3.54381
63 70 -3.29764
64 70 -3.34911
65 70 -3.35971
66 70 -3.18946
67 70 -3.21574
68 70 -3.2625
69 70 -3.28689
70 70 -3.42478
71 70 -3.90308
72 70 -3.76893
73 70 -3.94321
74 70 -4.5616
75 70 -4.82597
76 70 -5.3285
77 70 -5.5957
78 70 -6.2214
79 70 -6.70835
80 70 -7.82519
81 70 -8.10382
82 70 -8.59982
83 70 -9.15453
84 70 -9.60801
85 70 -10.0328
86 70 -10.2744
87 70 -10.7752
88 70 -11.3633
89 70 -12.0482
90 70 -12.5318
91 70 -13.3404
92 70 -14.0735
93 70 -15.2086
94 70 -16.3309
95 70 -18.0489
96 70 -20.3651
97 70 -19.001
98 70 -94.7453
99 70 -94.7453
100 70 -94.7453
101 70 -94.7453
102 70 -94.7453
103 70 -94.7453
104 70 -94.7453
105 70 -94.7453
106 70 -94.7453
107 70 -94.7453
108 70 -94.7453
109 70 -94.7453
110 70 -94.7453
111 70 -94.7453
112 70 -94.7453
113 70 -94.7453
114 70 -94.7453
115 70 -94.7453
116 70 -94.7453
117 70 -94.7453
118 70 -94.7453
119 70 -94.7453
0 71 -94.7453
1 71 -94.7453
2 71 -94.7453
3 71 -94.7453
4 71 -94.7453
5 71 -94.7453
6 71 -94.7453
7 71 -94.7453
8 71 -94.7453
9 71 -94.7453
10 71 -94.7453
11 71 -94.7453
12 71 -94.7453
13 71 -94.7453
14 71 -94.7453
15 71 -94.7453
16 71 -94.7453
17 71 -94.7453
18 71 -94.7453
19 71 -94.7453
20 71 -94.7453
21 71 -94.7453
22 71 -94.7453
23 71 -94.7453
24 71 -94.7453
25 71 -20.8128
26 71 -18.3667
27 71 -17.2302
28 71 -16.907
29 71 -16.0674
30 71 -15.3731
31 71 -14.9846
32 71 -14.2114
33 71 -13.4373
34 71 -12.7244
35 71 -12.2396
36 71 -11.5964
37 71 -11.2486
38 71 -10.6756
39 71 -10.0279
40 71 -9.39257
41 71 -8.52177
42 71 -7.89179
43 71 -7.30707
44 71 -6.86392
45 71 -6.55179
46 71 -6.24636
47 71 -6.17026
48 71 -5.87479
49 71 -5.42342
50 71 -5.18717
51 71 -4.9425
52 71 -4.56233
53 71 -4.44694
54 71 -4.41738
55 71 -3.98767
56 71 -3.8567
57 71 -3.72198
58 71 -3.35108
59 71 -3.42225
60 71 -3.24984
61 71 -3.32244
62 71 -3.09533
63 71 -2.92586
64 71 -3.11186
65 71 -3.14362
66 71 -2.97731
67 71 -3.06307
68 71 -3.35398
69 71 -3.05421
70 71 -3.06917
71 71 -3.27181
72 71 -3.56727
73 71 -3.86552
74 71 -4.31633
75 71 -4.86123
76 71 -5.28093
77 71 -5.42989
78 71 -6.00492
79 71 -6.58769
80 71 -7.08476
81 71 -8.0349
82 71 -8.26967
83 71 -8.84236
84 71 -8.91736
85 71 -9.66613
86 71 -10.3511
87 71 -10.6952
88 71 -11.2785
89 71 -11.7044
90 71 -12.3743
91 71 -13.3422
92 71 -14.3235
93 71 -15.7277
94 71 -16.9154
95 71 -18.4453
96 71 -20.2366
97 71 -20.8294
98 71 -94.7453
99 71 -94.7453
100 71 -94.7453
101 71 -94.7453
102 71 -94.7453
103 71 -94.7453
104 71 -94.7453
105 71 -94.7453
106 71 -94.7453
107 71 -94.7453
108 71 -94.7453
109 71 -94.7453
110 71 -94.7453
111 71 -94.7453
112 71 -94.7453
113 71 -94.7453
114 71 -94.7453
115 71 -94.7453
116 71 -94.7453
117 71 -94.7453
118 71 -94.7453
119 71 -94.7453
0 72 -94.7453
1 72 -94.7453
2 72 -94.7453
3 72 -94.7453
4 72 -94.7453
5 72 -94.7453
6 72 -94.7453
7 72 -94.7453
8 72 -94.7453
9 72 -94.7453
10 72 -94.7453
11 72 -94.7453
12 72 -94.7453
13 72 -94.7453
14 72 -94.7453
15 72 -94.7453
16 72 -94.7453
17 72 -94.7453
18 72 -94.7453
19 72 -94.7453
20 72 -94.7453
21 72 -94.7453
22 72 -94.7453
23 72 -94.7453
24 72 -94.7453
25 72 -21.5534
26 72 -18.8908
27 72 -17.6282
28 72 -17.1209
29 72 -16.0988
30 72 -15.6551
31 72 -15.0093
32 72 -14.3132
33 72 -13.7593
34 72 -13.1175
35 72 -12.4239
36 72 -11.8543
37 72 -10.9107
38 72 -10.4103
39 72 -10.0187
40 72 -9.22995
41 72 -8.43757
42 72 -7.54345
43 72 -7.20011
44 72 -6.72826
45 72 -6.26504
46 72 -5.92606
47 72 -5.46203
48 72 -5.46725
49 72 -5.17156
50 72 -4.82723
51 72 -4.53086
52 72 -4.35416
53 72 -4.34328
54 72 -4.00094
55 72 -3.65802
56 72 -3.64351
57 72 -3.29072
58 72 -3.29837
59 72 -3.39601
60 72 -3.27806
61 72 -3.00103
62 72 -2.96201
63 72 -2.8328
64 72 -2.68726
65 72 -3.13773
66 72 -3.08172
67 72 -2.90656
68 72 -2.98831
69 72 -3.09652
70 72 -3.11531
71 72 -3.21184
72 72 -3.30531
73 72 -3.91024
74 72 -4.09343
75 72 -4.5556
76 72 -4.7992
77 72 -5.37012
78 72 -5.91583
79 72 -6.2024
80 72 -6.71615
81 72 -7.40955
82 72 -8.00047
83 72 -8.26021
84 72 -8.54179
85 72 -9.51778
86 72 -9.9495
87 72 -10.6042
88 72 -11.0239
89 72 -11.9861
90 72 -12.437
91 72 -13.3414
92 72 -14.17
93 72 -15.7547
94 72 -17.6492
95 72 -20.4523
96 72 -18.2584
97 72 -94.7453
98 72 -94.7453
99 72 -94.7453
100 72 -94.7453
101 72 -94.7453
102 72 -94.7453
103 72 -94.7453
104 72 -94.7453
105 72 -94.7453
106 72 -94.7453
107 72 -94.7453
108 72 -94.7453
109 72 -94.7453
110 72 -94.7453
111 72 -94.7453
112 72 -94.7453
113 72 -94.7453
114 72 -94.7453
115 72 -94.7453
116 72 -94.7453
117 72 -94.7453
118 72 -94.7453
119 72 -94.7453
0 73 -94.7453
1 73 -94.7453
2 73 -94.7453
3 73 -94.7453
4 73 -94.7453
5 73 -94.7453
6 73 -94.7453
7 73 -94.7453
8 73 -94.7453
9 73 -94.7453
10 73 -94.7453
11 73 -94.7453
12 73 -94.7453
13 73 -94.7453
14 73 -94.7453
15 73 -94.7453
16 73 -94.7453
17 73 -94.7453
18 73 -94.7453
19 73 -94.7453
20 73 -94.7453
21 73 -94.7453
22 73 -94.7453
23 73 -94.7453
24 73 -94.7453
25 73 -21.3062
26 73 -19.2227
27 73 -18.0858
28 73 -17.4683
29 73 -16.7114
30 73 -15.9646
31 73 -15.3213
32 73 -14.6372
33 73 -13.977
34 73 -13.1467
35 73 -12.2077
36 73 -11.7499
37 73 -11.0879
38 73 -10.2161
39 73 -9.66022
40 73 -8.77689
41 73 -8.24289
42 73 -7.32241
43 73 -7.04476
44 73 -6.59874
45 73 -6.12885
46 73 -5.76349
47 73 -5.62053
48 73 -5.35196
49 73 -4.90647
50 73 -4.6711
51 73 -4.30306
