ply
format ascii 1.0
comment Created by Open3D
element vertex 3187
property double x
property double y
property double z
end_header
93 69 -15.145
94 69 -16.3837
95 69 -18.0041
96 69 -18.0489
97 69 -17.8106
98 69 -48.3539
99 69 -48.3539
100 69 -48.3539
101 69 -48.3539
102 69 -48.3539
103 69 -48.3539
104 69 -48.3539
105 69 -48.3539
106 69 -48.3539
107 69 -48.3539
108 69 -48.3539
109 69 -48.3539
110 69 -48.3539
111 69 -48.3539
112 69 -48.3539
113 69 -48.3539
114 69 -48.3539
115 69 -48.3539
116 69 -48.3539
117 69 -48.3539
118 69 -48.3539
119 69 -48.3539
0 70 -48.3539
1 70 -48.3539
2 70 -48.3539
3 70 -48.3539
4 70 -48.3539
5 70 -48.3539
6 70 -48.3539
7 70 -48.3539
8 70 -48.3539
9 70 -48.3539
10 70 -48.3539
11 70 -48.3539
12 70 -48.3539
13 70 -48.3539
14 70 -48.3539
15 70 -48.3539
16 70 -48.3539
17 70 -48.3539
18 70 -48.3539
19 70 -48.3539
20 70 -48.3539
21 70 -48.3539
22 70 -48.3539
23 70 -48.3539
24 70 -48.3539
25 70 -18.4299
26 70 -18.3667
27 70 -17.2302
28 70 -16.907
29 70 -15.9184
30 70 -15.3731
31 70 -14.9471
32 70 -14.1694
33 70 -13.4373
34 70 -12.6866
35 70 -12.2396
36 70 -11.8097
37 70 -11.394
38 70 -10.5196
39 70 -10.0279
40 70 -9.38681
41 70 -8.57551
42 70 -7.89179
43 70 -7.45086
44 70 -7.16305
45 70 -6.86392
46 70 -6.70277
47 70 -6.32195
48 70 -6.07781
49 70 -5.55346
50 70 -5.43216
51 70 -5.23633
52 70 -4.9425
53 70 -4.82306
54 70 -4.48894
55 70 -4.38283
56 70 -4.06332
57 70 -3.95344
58 70 -3.72198
59 70 -3.56025
60 70 -3.56025
61 70 -3.54381
62 70 -3.54381
63 70 -3.29764
64 70 -3.29764
65 70 -3.26121
66 70 -3.21574
67 70 -3.2625
68 70 -3.28689
69 70 -3.35398
70 70 -3.42478
71 70 -3.76893
72 70 -3.90308
73 70 -4.10588
74 70 -4.62768
75 70 -4.94796
76 70 -5.42989
77 70 -5.88134
78 70 -6.42758
79 70 -6.76094
80 70 -7.82519
81 70 -8.10382
82 70 -8.59982
83 70 -9.1061
84 70 -9.60801
85 70 -10.0328
86 70 -10.3511
87 70 -10.7752
88 70 -11.3633
89 70 -12.0482
90 70 -12.5318
91 70 -13.3404
92 70 -14.0993
93 70 -15.2086
94 70 -16.5746
95 70 -18.0489
96 70 -19.001
97 70 -19.001
98 70 -48.3539
99 70 -48.3539
100 70 -48.3539
101 70 -48.3539
102 70 -48.3539
103 70 -48.3539
104 70 -48.3539
105 70 -48.3539
106 70 -48.3539
107 70 -48.3539
108 70 -48.3539
109 70 -48.3539
110 70 -48.3539
111 70 -48.3539
112 70 -48.3539
113 70 -48.3539
114 70 -48.3539
115 70 -48.3539
116 70 -48.3539
117 70 -48.3539
118 70 -48.3539
119 70 -48.3539
0 71 -48.3539
1 71 -48.3539
2 71 -48.3539
3 71 -48.3539
4 71 -48.3539
5 71 -48.3539
6 71 -48.3539
7 71 -48.3539
8 71 -48.3539
9 71 -48.3539
10 71 -48.3539
11 71 -48.3539
12 71 -48.3539
13 71 -48.3539
14 71 -48.3539
15 71 -48.3539
16 71 -48.3539
17 71 -48.3539
18 71 -48.3539
19 71 -48.3539
20 71 -48.3539
21 71 -48.3539
22 71 -48.3539
23 71 -48.3539
24 71 -48.3539
25 71 -18.4299
26 71 -18.4299
27 71 -17.3009
28 71 -16.925
29 71 -16.0674
30 71 -15.4377
31 71 -14.9846
32 71 -14.2114
33 71 -13.4424
34 71 -12.7244
35 71 -12.2396
36 71 -11.8097
37 71 -11.2486
38 71 -10.4103
39 71 -10.0279
40 71 -9.38681
41 71 -8.52177
42 71 -7.87933
43 71 -7.30707
44 71 -6.9648
45 71 -6.70277
46 71 -6.26504
47 71 -6.07781
48 71 -5.54416
49 71 -5.43216
50 71 -5.18717
51 71 -4.9425
52 71 -4.56233
53 71 -4.44694
54 71 -4.34328
55 71 -4.00094
56 71 -3.8567
57 71 -3.6975
58 71 -3.42225
59 71 -3.38595
60 71 -3.38595
61 71 -3.27806
62 71 -3.09533
63 71 -3.09533
64 71 -3.13773
65 71 -3.13773
66 71 -3.13773
67 71 -3.08172
68 71 -3.09652
69 71 -3.11531
70 71 -3.21184
71 71 -3.30531
72 71 -3.76893
73 71 -3.91024
74 71 -4.31633
75 71 -4.7992
76 71 -5.28093
77 71 -5.42989
78 71 -6.00492
79 71 -6.58769
80 71 -7.08476
81 71 -8.00047
82 71 -8.26021
83 71 -8.59982
84 71 -9.15453
85 71 -9.66613
86 71 -10.2744
87 71 -10.6952
88 71 -11.2785
89 71 -11.9861
90 71 -12.437
91 71 -13.3414
92 71 -14.17
93 71 -15.7277
94 71 -16.9154
95 71 -18.2584
96 71 -19.001
97 71 -18.2584
98 71 -48.3539
99 71 -48.3539
100 71 -48.3539
101 71 -48.3539
102 71 -48.3539
103 71 -48.3539
104 71 -48.3539
105 71 -48.3539
106 71 -48.3539
107 71 -48.3539
108 71 -48.3539
109 71 -48.3539
110 71 -48.3539
111 71 -48.3539
112 71 -48.3539
113 71 -48.3539
114 71 -48.3539
115 71 -48.3539
116 71 -48.3539
117 71 -48.3539
118 71 -48.3539
119 71 -48.3539
0 72 -48.3539
1 72 -48.3539
2 72 -48.3539
3 72 -48.3539
4 72 -48.3539
5 72 -48.3539
6 72 -48.3539
7 72 -48.3539
8 72 -48.3539
9 72 -48.3539
10 72 -48.3539
11 72 -48.3539
12 72 -48.3539
13 72 -48.3539
14 72 -48.3539
15 72 -48.3539
16 72 -48.3539
17 72 -48.3539
18 72 -48.3539
19 72 -48.3539
20 72 -48.3539
21 72 -48.3539
22 72 -48.3539
23 72 -48.3539
24 72 -48.3539
25 72 -18.8908
26 72 -18.8908
27 72 -17.6282
28 72 -17.1209
29 72 -16.0988
30 72 -15.6551
31 72 -15.0093
32 72 -14.3132
33 72 -13.7593
34 72 -13.1175
35 72 -12.2396
36 72 -11.7499
37 72 -11.0879
38 72 -10.4103
39 72 -10.0187
40 72 -9.22995
41 72 -8.43757
42 72 -7.54345
43 72 -7.20011
44 72 -6.72826
45 72 -6.26504
46 72 -6.12885
47 72 -5.76349
48 72 -5.46203
49 72 -5.18717
50 72 -4.90647
51 72 -4.56233
52 72 -4.35416
53 72 -4.34328
54 72 -4.00094
55 72 -3.80963
56 72 -3.64351
57 72 -3.35108
58 72 -3.29837
59 72 -3.27806
60 72 -3.24984
61 72 -3.01259
62 72 -2.96201
63 72 -2.8328
64 72 -2.8328
65 72 -2.97731
66 72 -2.97731
67 72 -2.97731
68 72 -3.05421
69 72 -3.06917
70 72 -3.08522
71 72 -3.21184
72 72 -3.31605
73 72 -3.71865
74 72 -3.97391
75 72 -4.31633
76 72 -4.7992
77 72 -5.28093
78 72 -5.66267
79 72 -6.2024
80 72 -6.71615
81 72 -7.40955
82 72 -8.12793
83 72 -8.54115
84 72 -8.88708
85 72 -9.51778
86 72 -9.9495
87 72 -10.6042
88 72 -11.0239
89 72 -11.7044
90 72 -12.3743
91 72 -13.3414
92 72 -14.1942
93 72 -15.7547
94 72 -17.6492
95 72 -18.2584
96 72 -18.4453
97 72 -48.3539
98 72 -48.3539
99 72 -48.3539
100 72 -48.3539
101 72 -48.3539
102 72 -48.3539
103 72 -48.3539
104 72 -48.3539
105 72 -48.3539
106 72 -48.3539
107 72 -48.3539
108 72 -48.3539
109 72 -48.3539
110 72 -48.3539
111 72 -48.3539
112 72 -48.3539
113 72 -48.3539
114 72 -48.3539
115 72 -48.3539
116 72 -48.3539
117 72 -48.3539
118 72 -48.3539
119 72 -48.3539
0 73 -48.3539
1 73 -48.3539
2 73 -48.3539
3 73 -48.3539
4 73 -48.3539
5 73 -48.3539
6 73 -48.3539
7 73 -48.3539
8 73 -48.3539
9 73 -48.3539
10 73 -48.3539
11 73 -48.3539
12 73 -48.3539
13 73 -48.3539
14 73 -48.3539
15 73 -48.3539
16 73 -48.3539
17 73 -48.3539
18 73 -48.3539
19 73 -48.3539
20 73 -48.3539
21 73 -48.3539
22 73 -48.3539
23 73 -48.3539
24 73 -48.3539
25 73 -19.2227
26 73 -19.2227
27 73 -18.0858
28 73 -17.4683
29 73 -16.7114
30 73 -15.9454
31 73 -15.3213
32 73 -14.6372
33 73 -13.9447
34 73 -13.1467
35 73 -12.4239
36 73 -11.8531
37 73 -11.0119
38 73 -10.4103
39 73 -9.97354
40 73 -8.77689
41 73 -8.24289
42 73 -7.32241
43 73 -7.04476
44 73 -6.59874
45 73 -6.12885
46 73 -5.76349
47 73 -5.46725
48 73 -5.35196
49 73 -4.90647
50 73 -4.6711
51 73 -4.30306
52 73 -4.27795
53 73 -4.14727
54 73 -3.80963
55 73 -3.65802
56 73 -3.50139
57 73 -3.29837
58 73 -3.19375
59 73 -3.07937
60 73 -3.00103
61 73 -2.96201
62 73 -2.74336
63 73 -2.66958
64 73 -2.68726
65 73 -2.68726
66 73 -2.78752
67 73 -2.57287
68 73 -2.71273
69 73 -2.71273
70 73 -2.89343
71 73 -2.96646
72 73 -3.21184
73 73 -3.31605
74 73 -3.71865
75 73 -3.98278
76 73 -4.40153
77 73 -4.69953
78 73 -5.32603
79 73 -5.91583
80 73 -6.57907
81 73 -7.08337
82 73 -8.00047
83 73 -8.26021
84 73 -8.7582
85 73 -9.38218
86 73 -9.82245
87 73 -10.3952
88 73 -10.9732
89 73 -11.653
90 73 -12.437
91 73 -13.3414
92 73 -14.1942
93 73 -15.7547
94 73 -17.78
95 73 -18.2584
96 73 -18.2584
97 73 -48.3539
98 73 -48.3539
99 73 -48.3539
100 73 -48.3539
101 73 -48.3539
102 73 -48.3539
103 73 -48.3539
104 73 -48.3539
105 73 -48.3539
106 73 -48.3539
107 73 -48.3539
108 73 -48.3539
109 73 -48.3539
110 73 -48.3539
111 73 -48.3539
112 73 -48.3539
113 73 -48.3539
114 73 -48.3539
115 73 -48.3539
116 73 -48.3539
117 73 -48.3539
118 73 -48.3539
119 73 -48.3539
0 74 -48.3539
1 74 -48.3539
2 74 -48.3539
3 74 -48.3539
4 74 -48.3539
5 74 -48.3539
6 74 -48.3539
7 74 -48.3539
8 74 -48.3539
9 74 -48.3539
10 74 -48.3539
11 74 -48.3539
12 74 -48.3539
13 74 -48.3539
14 74 -48.3539
15 74 -48.3539
16 74 -48.3539
17 74 -48.3539
18 74 -48.3539
19 74 -48.3539
20 74 -48.3539
21 74 -48.3539
22 74 -48.3539
23 74 -48.3539
24 74 -48.3539
25 74 -19.4838
26 74 -19.4838
27 74 -18.6395
28 74 -17.8589
29 74 -17.0171
30 74 -15.9759
31 74 -15.6194
32 74 -14.9828
33 74 -13.977
34 74 -13.1467
35 74 -12.5656
36 74 -11.8531
37 74 -11.0119
38 74 -10.2161
39 74 -9.69814
40 74 -8.77689
41 74 -8.19361
42 74 -7.32241
43 74 -7.04476
44 74 -6.55916
45 74 -6.12885
46 74 -5.76349
47 74 -5.53584
48 74 -5.09563
49 74 -4.90647
50 74 -4.30306
51 74 -4.156
52 74 -4.14727
53 74 -3.87843
54 74 -3.73973
55 74 -3.54286
56 74 -3.26905
57 74 -3.19375
58 74 -3.09755
59 74 -3.07937
60 74 -2.9467
61 74 -2.74571
62 74 -2.66958
63 74 -2.58751
64 74 -2.61733
65 74 -2.57287
66 74 -2.50388
67 74 -2.38279
68 74 -2.38279
69 74 -2.38279
70 74 -2.40707
71 74 -2.45143
72 74 -2.89343
73 74 -3.12296
74 74 -3.41252
75 74 -3.43722
76 74 -3.98278
77 74 -4.40153
78 74 -4.69953
79 74 -5.32603
80 74 -6.17916
81 74 -6.96092
82 74 -7.66973
83 74 -8.12798
84 74 -8.7582
85 74 -9.18482
86 74 -9.82245
87 74 -10.3952
88 74 -10.8988
89 74 -11.4779
90 74 -12.4647
91 74 -13.4949
92 74 -14.2897
93 74 -15.7298
94 74 -17.8174
95 74 -18.284
96 74 -18.284
97 74 -48.3539
98 74 -48.3539
99 74 -48.3539
100 74 -48.3539
101 74 -48.3539
102 74 -48.3539
103 74 -48.3539
104 74 -48.3539
105 74 -48.3539
106 74 -48.3539
107 74 -48.3539
108 74 -48.3539
109 74 -48.3539
110 74 -48.3539
111 74 -48.3539
112 74 -48.3539
113 74 -48.3539
114 74 -48.3539
115 74 -48.3539
116 74 -48.3539
117 74 -48.3539
118 74 -48.3539
119 74 -48.3539
0 75 -48.3539
1 75 -48.3539
2 75 -48.3539
3 75 -48.3539
4 75 -48.3539
5 75 -48.3539
6 75 -48.3539
7 75 -48.3539
8 75 -48.3539
9 75 -48.3539
10 75 -48.3539
11 75 -48.3539
12 75 -48.3539
13 75 -48.3539
14 75 -48.3539
15 75 -48.3539
16 75 -48.3539
17 75 -48.3539
18 75 -48.3539
19 75 -48.3539
20 75 -48.3539
21 75 -48.3539
22 75 -48.3539
23 75 -48.3539
24 75 -48.3539
25 75 -19.9922
26 75 -20.0036
27 75 -19.4626
28 75 -18.4794
29 75 -17.3422
30 75 -16.5628
31 75 -15.9454
32 75 -14.9828
33 75 -14.0789
34 75 -13.1308
35 75 -12.5656
36 75 -11.8531
37 75 -10.7185
38 75 -10.3069
39 75 -9.69814
40 75 -8.84196
41 75 -8.17731
42 75 -7.70035
43 75 -7.08623
44 75 -6.38085
45 75 -6.04878
46 75 -5.59144
47 75 -5.44919
48 75 -5.0853
49 75 -4.75496
50 75 -4.16379
51 75 -4.06743
52 75 -3.87843
53 75 -3.73973
54 75 -3.56608
55 75 -3.29383
56 75 -3.19375
57 75 -3.11111
58 75 -3.09755
59 75 -3.09755
60 75 -2.99103
61 75 -2.83317
62 75 -2.65902
63 75 -2.57513
64 75 -2.58751
65 75 -2.57287
66 75 -2.57287
67 75 -2.42971
68 75 -2.36933
69 75 -2.28953
70 75 -2.28138
71 75 -2.30065
72 75 -2.56804
73 75 -2.76106
74 75 -3.08362
75 75 -3.39663
76 75 -3.43722
77 75 -4.05132
78 75 -4.53735
79 75 -5.17568
80 75 -6.16365
81 75 -6.86752
82 75 -7.4855
83 75 -7.88226
84 75 -8.56461
85 75 -9.06108
86 75 -9.86707
87 75 -10.3952
88 75 -10.8988
89 75 -11.4199
90 75 -12.4647
91 75 -13.4949
92 75 -14.2897
93 75 -15.7057
94 75 -17.8498
95 75 -18.6008
96 75 -18.6008
97 75 -48.3539
98 75 -48.3539
99 75 -48.3539
100 75 -48.3539
101 75 -48.3539
102 75 -48.3539
103 75 -48.3539
104 75 -48.3539
105 75 -48.3539
106 75 -48.3539
107 75 -48.3539
108 75 -48.3539
109 75 -48.3539
110 75 -48.3539
111 75 -48.3539
112 75 -48.3539
113 75 -48.3539
114 75 -48.3539
115 75 -48.3539
116 75 -48.3539
117 75 -48.3539
118 75 -48.3539
119 75 -48.3539
0 76 -48.3539
1 76 -48.3539
2 76 -48.3539
3 76 -48.3539
4 76 -48.3539
5 76 -48.3539
6 76 -48.3539
7 76 -48.3539
8 76 -48.3539
9 76 -48.3539
10 76 -48.3539
11 76 -48.3539
12 76 -48.3539
13 76 -48.3539
14 76 -48.3539
15 76 -48.3539
16 76 -48.3539
17 76 -48.3539
18 76 -48.3539
19 76 -48.3539
20 76 -48.3539
21 76 -48.3539
22 76 -48.3539
23 76 -48.3539
24 76 -48.3539
25 76 -19.9922
26 76 -21.0651
27 76 -20.7507
28 76 -19.4626
29 76 -18.363
30 76 -17.2578
31 76 -16.2979
32 76 -14.9828
33 76 -14.222
34 76 -13.1308
35 76 -12.5383
36 76 -11.9559
37 76 -10.7185
38 76 -10.2013
39 76 -9.42524
40 76 -8.95765
41 76 -8.17731
42 76 -7.70035
43 76 -7.2284
44 76 -6.38085
45 76 -5.9339
46 76 -5.7983
47 76 -5.44919
48 76 -4.9679
49 76 -4.44088
50 76 -4.06743
51 76 -3.87843
52 76 -3.80635
53 76 -3.56608
54 76 -3.49598
55 76 -3.19805
56 76 -2.94485
57 76 -2.82274
58 76 -3.04828
59 76 -3.11111
60 76 -3.18835
61 76 -2.94076
62 76 -2.74571
63 76 -2.63425
64 76 -2.59318
65 76 -2.59659
66 76 -2.59318
67 76 -2.42971
68 76 -2.36933
69 76 -2.21955
70 76 -2.21955
71 76 -2.28953
72 76 -2.46037
73 76 -2.60274
74 76 -2.65693
75 76 -3.06407
76 76 -3.41801
77 76 -4.00023
78 76 -4.40642
79 76 -5.03582
80 76 -6.09067
81 76 -6.82883
82 76 -7.34509
83 76 -7.88226
84 76 -8.51973
85 76 -9.02615
86 76 -9.86707
87 76 -10.4494
88 76 -10.9116
89 76 -11.4199
90 76 -12.4951
91 76 -13.4504
92 76 -14.4336
93 76 -15.7057
94 76 -17.8498
95 76 -18.8082
96 76 -18.8082
97 76 -48.3539
98 76 -48.3539
99 76 -48.3539
100 76 -48.3539
101 76 -48.3539
102 76 -48.3539
103 76 -48.3539
104 76 -48.3539
105 76 -48.3539
106 76 -48.3539
107 76 -48.3539
108 76 -48.3539
109 76 -48.3539
110 76 -48.3539
111 76 -48.3539
112 76 -48.3539
113 76 -48.3539
114 76 -48.3539
115 76 -48.3539
116 76 -48.3539
117 76 -48.3539
118 76 -48.3539
119 76 -48.3539
0 77 -48.3539
1 77 -48.3539
2 77 -48.3539
3 77 -48.3539
4 77 -48.3539
5 77 -48.3539
6 77 -48.3539
7 77 -48.3539
8 77 -48.3539
9 77 -48.3539
10 77 -48.3539
11 77 -48.3539
12 77 -48.3539
13 77 -48.3539
14 77 -48.3539
15 77 -48.3539
16 77 -48.3539
17 77 -48.3539
18 77 -48.3539
19 77 -48.3539
20 77 -48.3539
21 77 -48.3539
22 77 -48.3539
23 77 -48.3539
24 77 -48.3539
25 77 -48.3539
26 77 -22.1067
27 77 -21.6708
28 77 -20.7507
29 77 -19.4626
30 77 -18.1899
31 77 -16.5151
32 77 -15.4649
33 77 -14.3893
34 77 -13.5647
35 77 -12.5383
36 77 -12.0966
37 77 -10.8062
38 77 -10.3069
39 77 -9.42524
40 77 -8.84196
41 77 -8.17731
42 77 -7.47057
43 77 -7.25074
44 77 -6.74495
45 77 -5.9339
46 77 -5.79205
47 77 -5.44919
48 77 -4.82279
49 77 -4.43261
50 77 -4.01165
51 77 -3.84831
52 77 -3.80635
53 77 -3.56439
54 77 -3.29383
55 77 -2.87177
56 77 -2.66495
57 77 -2.65863
58 77 -2.78364
59 77 -2.91409
60 77 -2.99103
61 77 -2.91409
62 77 -2.83317
63 77 -2.63425
64 77 -2.5324
65 77 -2.59659
66 77 -2.59318
67 77 -2.42971
68 77 -2.24632
69 77 -2.18899
70 77 -2.19448
71 77 -2.21232
72 77 -2.38868
73 77 -2.48248
74 77 -2.48248
75 77 -2.65693
76 77 -3.08362
77 77 -3.95138
78 77 -4.36254
79 77 -5.01425
80 77 -5.80297
81 77 -6.56447
82 77 -7.15615
83 77 -7.98612
84 77 -8.49422
85 77 -9.01818
86 77 -9.73519
87 77 -10.4494
88 77 -10.9166
89 77 -11.5005
90 77 -12.4371
91 77 -13.4504
92 77 -14.4336
93 77 -15.9547
94 77 -17.8498
95 77 -18.8082
96 77 -17.833
97 77 -48.3539
98 77 -48.3539
99 77 -48.3539
100 77 -48.3539
101 77 -48.3539
102 77 -48.3539
103 77 -48.3539
104 77 -48.3539
105 77 -48.3539
106 77 -48.3539
107 77 -48.3539
108 77 -48.3539
109 77 -48.3539
110 77 -48.3539
111 77 -48.3539
112 77 -48.3539
113 77 -48.3539
114 77 -48.3539
115 77 -48.3539
116 77 -48.3539
117 77 -48.3539
118 77 -48.3539
119 77 -48.3539
0 78 -48.3539
1 78 -48.3539
2 78 -48.3539
3 78 -48.3539
4 78 -48.3539
5 78 -48.3539
6 78 -48.3539
7 78 -48.3539
8 78 -48.3539
9 78 -48.3539
10 78 -48.3539
11 78 -48.3539
12 78 -48.3539
13 78 -48.3539
14 78 -48.3539
15 78 -48.3539
16 78 -48.3539
17 78 -48.3539
18 78 -48.3539
19 78 -48.3539
20 78 -48.3539
21 78 -48.3539
22 78 -48.3539
23 78 -48.3539
24 78 -48.3539
25 78 -48.3539
26 78 -22.6
27 78 -22.7356
28 78 -21.4867
29 78 -20.2909
30 78 -18.9364
31 78 -17.337
32 78 -15.8479
33 78 -14.6511
34 78 -13.6447
35 78 -12.5672
36 78 -12.1281
37 78 -11.0082
38 78 -10.4113
39 78 -9.46337
40 78 -8.95765
41 78 -8.19343
42 78 -7.47057
43 78 -7.26042
44 78 -6.74495
45 78 -6.10294
46 78 -5.7983
47 78 -5.512
48 78 -5.04373
49 78 -4.44088
50 78 -4.12607
51 78 -3.9105
52 78 -3.83143
53 78 -3.56439
54 78 -3.19194
55 78 -2.87177
56 78 -2.6412
57 78 -2.62551
58 78 -2.55788
59 78 -2.78364
60 78 -2.9112
61 78 -2.86857
62 78 -2.74204
63 78 -2.63425
64 78 -2.50049
65 78 -2.59318
66 78 -2.4409
67 78 -2.36483
68 78 -2.31958
69 78 -2.19448
70 78 -2.21232
71 78 -2.21232
72 78 -2.38868
73 78 -2.38868
74 78 -2.22779
75 78 -2.35659
76 78 -2.82755
77 78 -3.78652
78 78 -4.04623
79 78 -4.80019
80 78 -5.47094
81 78 -6.44564
82 78 -7.0372
83 78 -7.98612
84 78 -8.42141
85 78 -8.91366
86 78 -9.47121
87 78 -10.4494
88 78 -10.9975
89 78 -11.5607
90 78 -12.4994
91 78 -13.517
92 78 -14.8442
93 78 -16.6111
94 78 -17.833
95 78 -18.0374
96 78 -48.3539
97 78 -48.3539
98 78 -48.3539
99 78 -48.3539
100 78 -48.3539
101 78 -48.3539
102 78 -48.3539
103 78 -48.3539
104 78 -48.3539
105 78 -48.3539
106 78 -48.3539
107 78 -48.3539
108 78 -48.3539
109 78 -48.3539
110 78 -48.3539
111 78 -48.3539
112 78 -48.3539
113 78 -48.3539
114 78 -48.3539
115 78 -48.3539
116 78 -48.3539
117 78 -48.3539
118 78 -48.3539
119 78 -48.3539
0 79 -48.3539
1 79 -48.3539
2 79 -48.3539
3 79 -48.3539
4 79 -48.3539
5 79 -48.3539
6 79 -48.3539
7 79 -48.3539
8 79 -48.3539
9 79 -48.3539
10 79 -48.3539
11 79 -48.3539
12 79 -48.3539
13 79 -48.3539
14 79 -48.3539
15 79 -48.3539
16 79 -48.3539
17 79 -48.3539
18 79 -48.3539
19 79 -48.3539
20 79 -48.3539
21 79 -48.3539
22 79 -48.3539
23 79 -48.3539
24 79 -48.3539
25 79 -48.3539
26 79 -22.6
27 79 -23.3802
28 79 -22.6
29 79 -21.2311
30 79 -19.3568
31 79 -18.1014
32 79 -16.544
33 79 -15.3485
34 79 -13.9008
35 79 -12.8822
36 79 -12.2942
37 79 -11.1164
38 79 -10.4733
39 79 -9.65598
40 79 -8.8314
41 79 -8.28227
42 79 -7.56941
43 79 -7.3384
44 79 -6.74495
45 79 -6.49873
46 79 -5.96208
47 79 -5.58319
48 79 -5.13416
49 79 -4.66688
50 79 -4.32784
51 79 -4.01165
52 79 -3.83144
53 79 -3.6
54 79 -3.19194
55 79 -2.92706
56 79 -2.62947
57 79 -2.51732
58 79 -2.43138
59 79 -2.43138
60 79 -2.78364
61 79 -2.86857
62 79 -2.74204
63 79 -2.64762
64 79 -2.50049
65 79 -2.54048
66 79 -2.4409
67 79 -2.41522
68 79 -2.36343
69 79 -2.31865
70 79 -2.31865
71 79 -2.31865
72 79 -2.43029
73 79 -2.43029
74 79 -2.35659
75 79 -2.49902
76 79 -2.82755
77 79 -3.59003
78 79 -4.04211
79 79 -4.53314
80 79 -5.47094
81 79 -6.30572
82 79 -6.87729
83 79 -7.36044
84 79 -8.32111
85 79 -8.87082
86 79 -9.43493
87 79 -10.2365
88 79 -10.9975
89 79 -11.7211
90 79 -12.5026
91 79 -13.757
92 79 -14.8773
93 79 -16.7001
94 79 -16.973
95 79 -16.8754
96 79 -48.3539
97 79 -48.3539
98 79 -48.3539
99 79 -48.3539
100 79 -48.3539
101 79 -48.3539
102 79 -48.3539
103 79 -48.3539
104 79 -48.3539
105 79 -48.3539
106 79 -48.3539
107 79 -48.3539
108 79 -48.3539
109 79 -48.3539
110 79 -48.3539
111 79 -48.3539
112 79 -48.3539
113 79 -48.3539
114 79 -48.3539
115 79 -48.3539
116 79 -48.3539
117 79 -48.3539
118 79 -48.3539
119 79 -48.3539
0 80 -48.3539
1 80 -48.3539
2 80 -48.3539
3 80 -48.3539
4 80 -48.3539
5 80 -48.3539
6 80 -48.3539
7 80 -48.3539
8 80 -48.3539
9 80 -48.3539
10 80 -48.3539
11 80 -48.3539
12 80 -48.3539
13 80 -48.3539
14 80 -48.3539
15 80 -48.3539
16 80 -48.3539
17 80 -48.3539
18 80 -48.3539
19 80 -48.3539
20 80 -48.3539
21 80 -48.3539
22 80 -48.3539
23 80 -48.3539
24 80 -48.3539
25 80 -48.3539
26 80 -22.1468
27 80 -24.2536
28 80 -23.4587
29 80 -22.1817
30 80 -20.2549
31 80 -18.5709
32 80 -17.1755
33 80 -15.8592
34 80 -14.7929
35 80 -13.1646
36 80 -12.3585
37 80 -11.1293
38 80 -10.6046
39 80 -9.76255
40 80 -9.06997
41 80 -8.43779
42 80 -7.77865
43 80 -7.48557
44 80 -6.89234
45 80 -6.49943
46 80 -6.12595
47 80 -5.59067
48 80 -5.15362
49 80 -4.77525
50 80 -4.47208
51 80 -4.21309
52 80 -3.8616
53 80 -3.60654
54 80 -3.30292
55 80 -2.92706
56 80 -2.62616
57 80 -2.51212
58 80 -2.43138
59 80 -2.43138
60 80 -2.56485
61 80 -2.70903
62 80 -2.82522
63 80 -2.74204
64 80 -2.64762
65 80 -2.65709
66 80 -2.65709
67 80 -2.65709
68 80 -2.36483
69 80 -2.36483
70 80 -2.34664
71 80 -2.53685
72 80 -2.607
73 80 -2.55361
74 80 -2.49902
75 80 -2.81609
76 80 -2.844
77 80 -3.59003
78 80 -3.98465
79 80 -4.53314
80 80 -5.39271
81 80 -6.12182
82 80 -6.41433
83 80 -7.30843
84 80 -8.1808
85 80 -8.87082
86 80 -9.43493
87 80 -10.2365
88 80 -10.9975
89 80 -11.7441
90 80 -12.8504
91 80 -13.84
92 80 -15.1301
93 80 -16.973
94 80 -16.973
95 80 -16.2449
96 80 -48.3539
97 80 -48.3539
98 80 -48.3539
99 80 -48.3539
100 80 -48.3539
101 80 -48.3539
102 80 -48.3539
103 80 -48.3539
104 80 -48.3539
105 80 -48.3539
106 80 -48.3539
107 80 -48.3539
108 80 -48.3539
109 80 -48.3539
110 80 -48.3539
111 80 -48.3539
112 80 -48.3539
113 80 -48.3539
114 80 -48.3539
115 80 -48.3539
116 80 -48.3539
117 80 -48.3539
118 80 -48.3539
119 80 -48.3539
0 81 -48.3539
1 81 -48.3539
2 81 -48.3539
3 81 -48.3539
4 81 -48.3539
5 81 -48.3539
6 81 -48.3539
7 81 -48.3539
8 81 -48.3539
9 81 -48.3539
10 81 -48.3539
11 81 -48.3539
12 81 -48.3539
13 81 -48.3539
14 81 -48.3539
15 81 -48.3539
16 81 -48.3539
17 81 -48.3539
18 81 -48.3539
19 81 -48.3539
20 81 -48.3539
21 81 -48.3539
22 81 -48.3539
23 81 -48.3539
24 81 -48.3539
25 81 -48.3539
26 81 -21.8379
27 81 -25.3972
28 81 -25.3972
29 81 -23.4587
30 81 -21.0239
31 81 -19.203
32 81 -17.558
33 81 -15.9808
34 81 -14.9798
35 81 -13.4237
36 81 -12.4919
37 81 -11.9117
38 81 -10.8748
39 81 -10.165
40 81 -9.31174
41 81 -8.7788
42 81 -8.15177
43 81 -7.71593
44 81 -7.18371
45 81 -6.75735
46 81 -6.30877
47 81 -5.77617
48 81 -5.58319
49 81 -5.08304
50 81 -4.52385
51 81 -4.43994
52 81 -4.07914
53 81 -3.61958
54 81 -3.30292
55 81 -2.92378
56 81 -2.54293
57 81 -2.48313
58 81 -2.43138
59 81 -2.43138
60 81 -2.56485
61 81 -2.6068
62 81 -2.82522
63 81 -2.9581
64 81 -2.97168
65 81 -3.02153
66 81 -3.13985
67 81 -3.12815
68 81 -2.55573
69 81 -2.41522
70 81 -2.38977
71 81 -2.62872
72 81 -2.63584
73 81 -2.63584
74 81 -2.7167
75 81 -2.844
76 81 -3.41049
77 81 -3.7132
78 81 -3.98465
79 81 -4.74
80 81 -5.3451
81 81 -6.03973
82 81 -6.41433
83 81 -7.30843
84 81 -8.06604
85 81 -8.86587
86 81 -9.47446
87 81 -10.3472
88 81 -11.174
89 81 -12.0223
90 81 -12.9854
91 81 -14.0938
92 81 -15.309
93 81 -17.0252
94 81 -17.0252
95 81 -15.831
96 81 -48.3539
97 81 -48.3539
98 81 -48.3539
99 81 -48.3539
100 81 -48.3539
101 81 -48.3539
102 81 -48.3539
103 81 -48.3539
104 81 -48.3539
105 81 -48.3539
106 81 -48.3539
107 81 -48.3539
108 81 -48.3539
109 81 -48.3539
110 81 -48.3539
111 81 -48.3539
112 81 -48.3539
113 81 -48.3539
114 81 -48.3539
115 81 -48.3539
116 81 -48.3539
117 81 -48.3539
118 81 -48.3539
119 81 -48.3539
0 82 -48.3539
1 82 -48.3539
2 82 -48.3539
3 82 -48.3539
4 82 -48.3539
5 82 -48.3539
6 82 -48.3539
7 82 -48.3539
8 82 -48.3539
9 82 -48.3539
10 82 -48.3539
11 82 -48.3539
12 82 -48.3539
13 82 -48.3539
14 82 -48.3539
15 82 -48.3539
16 82 -48.3539
17 82 -48.3539
18 82 -48.3539
19 82 -48.3539
20 82 -48.3539
21 82 -48.3539
22 82 -48.3539
23 82 -48.3539
24 82 -48.3539
25 82 -48.3539
26 82 -48.3539
27 82 -26.9711
28 82 -26.9711
29 82 -24.6435
30 82 -22.252
31 82 -19.8034
32 82 -18.0497
33 82 -16.6264
34 82 -15.332
35 82 -14.0979
36 82 -12.8945
37 82 -12.2113
38 82 -11.1735
39 82 -10.165
40 82 -9.60125
41 82 -8.80974
42 82 -8.26943
43 82 -7.81176
44 82 -7.19731
45 82 -6.89234
46 82 -6.39132
47 82 -6.0402
48 82 -5.6095
49 82 -5.35676
50 82 -4.72906
51 82 -4.52089
52 82 -4.07914
53 82 -3.69124
54 82 -3.25385
55 82 -2.92378
56 82 -2.5932
57 82 -2.51212
58 82 -2.56485
59 82 -2.56485
60 82 -2.6068
61 82 -2.60734
62 82 -2.90671
63 82 -3.02677
64 82 -3.04233
65 82 -3.2529
66 82 -3.34816
67 82 -3.24903
68 82 -3.12815
69 82 -2.6821
70 82 -2.63648
71 82 -2.70453
72 82 -2.70453
73 82 -2.7167
74 82 -2.81609
75 82 -2.93676
76 82 -3.42317
77 82 -3.86947
78 82 -3.98465
79 82 -4.76917
80 82 -5.3451
81 82 -6.03973
82 82 -6.572
83 82 -7.33482
84 82 -8.06604
85 82 -8.86587
86 82 -9.70506
87 82 -10.7805
88 82 -11.379
89 82 -12.1413
90 82 -13.4531
91 82 -14.1445
92 82 -15.4048
93 82 -17.139
94 82 -17.139
95 82 -15.0326
96 82 -48.3539
97 82 -48.3539
98 82 -48.3539
99 82 -48.3539
100 82 -48.3539
101 82 -48.3539
102 82 -48.3539
103 82 -48.3539
104 82 -48.3539
105 82 -48.3539
106 82 -48.3539
107 82 -48.3539
108 82 -48.3539
109 82 -48.3539
110 82 -48.3539
111 82 -48.3539
112 82 -48.3539
113 82 -48.3539
114 82 -48.3539
115 82 -48.3539
116 82 -48.3539
117 82 -48.3539
118 82 -48.3539
119 82 -48.3539
0 83 -48.3539
1 83 -48.3539
2 83 -48.3539
3 83 -48.3539
4 83 -48.3539
5 83 -48.3539
6 83 -48.3539
7 83 -48.3539
8 83 -48.3539
9 83 -48.3539
10 83 -48.3539
11 83 -48.3539
12 83 -48.3539
13 83 -48.3539
14 83 -48.3539
15 83 -48.3539
16 83 -48.3539
17 83 -48.3539
18 83 -48.3539
19 83 -48.3539
20 83 -48.3539
21 83 -48.3539
22 83 -48.3539
23 83 -48.3539
24 83 -48.3539
25 83 -48.3539
26 83 -48.3539
27 83 -26.9711
28 83 -27.474
29 83 -25.8459
30 83 -23.1271
31 83 -20.586
32 83 -18.3431
33 83 -16.7357
34 83 -15.4168
35 83 -14.3401
36 83 -13.2275
37 83 -12.2113
38 83 -11.1774
39 83 -10.4075
40 83 -9.6203
41 83 -8.99577
42 83 -8.53138
43 83 -7.87895
44 83 -7.45441
45 83 -6.99962
46 83 -6.49575
47 83 -6.15694
48 83 -5.67802
49 83 -5.41669
50 83 -4.89521
51 83 -4.52689
52 83 -4.18691
53 83 -3.79597
54 83 -3.31044
55 83 -3.06596
56 83 -2.6839
57 83 -2.54293
58 83 -2.58464
59 83 -2.55148
60 83 -2.67034
61 83 -2.7335
62 83 -3.0443
63 83 -3.2529
64 83 -3.27621
65 83 -3.52251
66 83 -3.82805
67 83 -3.56909
68 83 -3.36199
69 83 -3.12815
70 83 -3.09535
71 83 -3.09535
72 83 -2.92814
73 83 -2.90317
74 83 -2.93676
75 83 -3.33885
76 83 -3.44047
77 83 -3.86947
78 83 -4.07826
79 83 -4.76917
80 83 -5.3504
81 83 -6.03973
82 83 -6.94655
83 83 -7.44311
84 83 -8.25221
85 83 -8.93854
86 83 -9.73905
87 83 -10.7805
88 83 -11.6071
89 83 -12.4349
90 83 -13.5484
91 83 -14.62
92 83 -16.5001
93 83 -17.139
94 83 -17.139
95 83 -48.3539
96 83 -48.3539
97 83 -48.3539
98 83 -48.3539
99 83 -48.3539
100 83 -48.3539
101 83 -48.3539
102 83 -48.3539
103 83 -48.3539
104 83 -48.3539
105 83 -48.3539
106 83 -48.3539
107 83 -48.3539
108 83 -48.3539
109 83 -48.3539
110 83 -48.3539
111 83 -48.3539
112 83 -48.3539
113 83 -48.3539
114 83 -48.3539
115 83 -48.3539
116 83 -48.3539
117 83 -48.3539
118 83 -48.3539
119 83 -48.3539
0 84 -48.3539
1 84 -48.3539
2 84 -48.3539
3 84 -48.3539
4 84 -48.3539
5 84 -48.3539
6 84 -48.3539
7 84 -48.3539
8 84 -48.3539
9 84 -48.3539
10 84 -48.3539
11 84 -48.3539
12 84 -48.3539
13 84 -48.3539
14 84 -48.3539
15 84 -48.3539
16 84 -48.3539
17 84 -48.3539
18 84 -48.3539
19 84 -48.3539
20 84 -48.3539
21 84 -48.3539
22 84 -48.3539
23 84 -48.3539
24 84 -48.3539
25 84 -48.3539
26 84 -48.3539
27 84 -48.3539
28 84 -28.5493
29 84 -27.474
30 84 -24.266
31 84 -21.1099
32 84 -18.8326
33 84 -16.8913
34 84 -15.4768
35 84 -14.6398
36 84 -13.355
37 84 -12.3798
38 84 -11.2937
39 84 -10.4075
40 84 -9.8742
41 84 -9.34498
42 84 -8.68472
43 84 -7.87895
44 84 -7.64042
45 84 -7.15797
46 84 -6.67299
47 84 -6.34741
48 84 -6.06528
49 84 -5.50975
50 84 -4.98155
51 84 -4.56049
52 84 -4.31235
53 84 -3.79597
54 84 -3.46346
55 84 -3.15594
56 84 -2.90327
57 84 -2.5932
58 84 -2.5932
59 84 -2.67034
60 84 -2.78222
61 84 -2.90671
62 84 -3.25886
63 84 -3.3986
64 84 -3.74234
65 84 -4.03383
66 84 -4.05418
67 84 -4.03383
68 84 -3.78587
69 84 -3.44892
70 84 -3.44892
71 84 -3.44892
72 84 -3.4074
73 84 -3.27353
74 84 -3.39088
75 84 -3.44047
76 84 -3.7028
77 84 -3.86947
78 84 -4.10131
79 84 -4.79679
80 84 -5.4977
81 84 -5.99705
82 84 -6.94655
83 84 -7.44311
84 84 -8.39856
85 84 -8.97436
86 84 -9.79884
87 84 -10.8553
88 84 -11.7888
89 84 -12.557
90 84 -13.6619
91 84 -14.962
92 84 -16.5881
93 84 -16.8273
94 84 -16.3483
95 84 -48.3539
96 84 -48.3539
97 84 -48.3539
98 84 -48.3539
99 84 -48.3539
100 84 -48.3539
101 84 -48.3539
102 84 -48.3539
103 84 -48.3539
104 84 -48.3539
105 84 -48.3539
106 84 -48.3539
107 84 -48.3539
108 84 -48.3539
109 84 -48.3539
110 84 -48.3539
111 84 -48.3539
112 84 -48.3539
113 84 -48.3539
114 84 -48.3539
115 84 -48.3539
116 84 -48.3539
117 84 -48.3539
118 84 -48.3539
119 84 -48.3539
0 85 -48.3539
1 85 -48.3539
2 85 -48.3539
3 85 -48.3539
4 85 -48.3539
5 85 -48.3539
6 85 -48.3539
7 85 -48.3539
8 85 -48.3539
9 85 -48.3539
10 85 -48.3539
11 85 -48.3539
12 85 -48.3539
13 85 -48.3539
14 85 -48.3539
15 85 -48.3539
16 85 -48.3539
17 85 -48.3539
18 85 -48.3539
19 85 -48.3539
20 85 -48.3539
21 85 -48.3539
22 85 -48.3539
23 85 -48.3539
24 85 -48.3539
25 85 -48.3539
26 85 -48.3539
27 85 -48.3539
28 85 -29.1694
29 85 -29.1694
30 85 -25.1706
31 85 -21.8958
32 85 -19.2753
33 85 -17.6595
34 85 -16.2049
35 85 -14.9156
36 85 -13.6734
37 85 -12.509
38 85 -11.5276
39 85 -10.7032
40 85 -9.92356
41 85 -9.38865
42 85 -8.90387
43 85 -8.02618
44 85 -7.68469
45 85 -7.28473
46 85 -7.06829
47 85 -6.42789
48 85 -6.20674
49 85 -5.60284
50 85 -5.23874
51 85 -4.9663
52 85 -4.38384
53 85 -3.84187
54 85 -3.558
55 85 -3.33608
56 85 -3.05247
57 85 -2.90327
58 85 -2.71539
59 85 -2.71539
60 85 -2.86293
61 85 -3.05593
62 85 -3.3986
63 85 -3.74234
64 85 -4.01609
65 85 -4.2224
66 85 -4.41334
67 85 -4.15462
68 85 -4.05418
69 85 -3.80596
70 85 -3.81796
71 85 -3.82896
72 85 -3.81796
73 85 -3.74004
74 85 -3.7028
75 85 -3.74004
76 85 -3.77655
77 85 -3.90426
78 85 -4.10131
79 85 -4.8934
80 85 -5.52278
81 85 -5.99705
82 85 -6.94655
83 85 -7.44311
84 85 -8.49688
85 85 -9.17832
86 85 -9.89125
87 85 -10.8553
88 85 -11.7888
89 85 -12.7177
90 85 -13.7184
91 85 -15.08
92 85 -16.8273
93 85 -16.8273
94 85 -16.0533
95 85 -48.3539
96 85 -48.3539
97 85 -48.3539
98 85 -48.3539
99 85 -48.3539
100 85 -48.3539
101 85 -48.3539
102 85 -48.3539
103 85 -48.3539
104 85 -48.3539
105 85 -48.3539
106 85 -48.3539
107 85 -48.3539
108 85 -48.3539
109 85 -48.3539
110 85 -48.3539
111 85 -48.3539
112 85 -48.3539
113 85 -48.3539
114 85 -48.3539
115 85 -48.3539
116 85 -48.3539
117 85 -48.3539
118 85 -48.3539
119 85 -48.3539
0 86 -48.3539
1 86 -48.3539
2 86 -48.3539
3 86 -48.3539
4 86 -48.3539
5 86 -48.3539
6 86 -48.3539
7 86 -48.3539
8 86 -48.3539
9 86 -48.3539
10 86 -48.3539
11 86 -48.3539
12 86 -48.3539
13 86 -48.3539
14 86 -48.3539
15 86 -48.3539
16 86 -48.3539
17 86 -48.3539
18 86 -48.3539
19 86 -48.3539
20 86 -48.3539
21 86 -48.3539
22 86 -48.3539
23 86 -48.3539
24 86 -48.3539
25 86 -48.3539
26 86 -48.3539
27 86 -48.3539
28 86 -30.4027
29 86 -30.4027
30 86 -25.7797
31 86 -22.7442
32 86 -20.3893
33 86 -18.2836
34 86 -16.4378
35 86 -15.1907
36 86 -13.9799
37 86 -12.9466
38 86 -11.7223
39 86 -10.8281
40 86 -10.2625
41 86 -9.47264
42 86 -8.95925
43 86 -8.36238
44 86 -7.90636
45 86 -7.62025
46 86 -7.19789
47 86 -6.6531
48 86 -6.33033
49 86 -5.74921
50 86 -5.53414
51 86 -5.00144
52 86 -4.49705
53 86 -3.84187
54 86 -3.58346
55 86 -3.33608
56 86 -3.30835
57 86 -3.30835
58 86 -3.05247
59 86 -3.05593
60 86 -3.05593
61 86 -3.1158
62 86 -3.43734
63 86 -4.01609
64 86 -4.24847
65 86 -4.57004
66 86 -4.60476
67 86 -4.48528
68 86 -4.2385
69 86 -4.0443
70 86 -3.97508
71 86 -3.90562
72 86 -3.90562
73 86 -3.90562
74 86 -3.80761
75 86 -3.80761
76 86 -3.89941
77 86 -3.99023
78 86 -4.46527
79 86 -4.91324
80 86 -5.54371
81 86 -6.25843
82 86 -6.9599
83 86 -7.66421
84 86 -8.59254
85 86 -9.19746
86 86 -10.0718
87 86 -10.9169
88 86 -11.8278
89 86 -12.7271
90 86 -13.9223
91 86 -15.2982
92 86 -17.0177
93 86 -17.0177
94 86 -16.0463
95 86 -48.3539
96 86 -48.3539
97 86 -48.3539
98 86 -48.3539
99 86 -48.3539
100 86 -48.3539
101 86 -48.3539
102 86 -48.3539
103 86 -48.3539
104 86 -48.3539
105 86 -48.3539
106 86 -48.3539
107 86 -48.3539
108 86 -48.3539
109 86 -48.3539
110 86 -48.3539
111 86 -48.3539
112 86 -48.3539
113 86 -48.3539
114 86 -48.3539
115 86 -48.3539
116 86 -48.3539
117 86 -48.3539
118 86 -48.3539
119 86 -48.3539
0 87 -48.3539
1 87 -48.3539
2 87 -48.3539
3 87 -48.3539
4 87 -48.3539
5 87 -48.3539
6 87 -48.3539
7 87 -48.3539
8 87 -48.3539
9 87 -48.3539
10 87 -48.3539
11 87 -48.3539
12 87 -48.3539
13 87 -48.3539
14 87 -48.3539
15 87 -48.3539
16 87 -48.3539
17 87 -48.3539
18 87 -48.3539
19 87 -48.3539
20 87 -48.3539
21 87 -48.3539
22 87 -48.3539
23 87 -48.3539
24 87 -48.3539
25 87 -48.3539
26 87 -48.3539
27 87 -48.3539
28 87 -30.4027
29 87 -30.4027
30 87 -27.2525
31 87 -23.6756
32 87 -21.2104
33 87 -18.6821
34 87 -16.9425
35 87 -15.4825
36 87 -14.4225
37 87 -13.113
38 87 -12.0726
39 87 -10.9531
40 87 -10.4693
41 87 -9.84026
42 87 -9.20937
43 87 -8.6081
44 87 -8.13089
45 87 -7.62025
46 87 -7.25682
47 87 -6.6999
48 87 -6.20674
49 87 -5.92543
50 87 -5.53414
51 87 -5.07214
52 87 -4.60917
53 87 -4.25672
54 87 -3.64082
55 87 -3.30979
56 87 -3.30835
57 87 -3.30979
58 87 -3.29169
59 87 -3.07109
60 87 -3.05593
61 87 -3.1158
62 87 -3.43734
63 87 -4.09032
64 87 -4.45735
65 87 -4.57004
66 87 -4.7927
67 87 -4.7927
68 87 -4.34694
69 87 -4.18102
70 87 -4.0443
71 87 -3.97589
72 87 -3.97166
73 87 -3.97166
74 87 -3.94063
75 87 -3.89941
76 87 -3.90426
77 87 -3.99023
78 87 -4.60578
79 87 -4.91324
80 87 -5.76605
81 87 -6.34298
82 87 -6.96351
83 87 -7.76444
84 87 -8.73989
85 87 -9.607
86 87 -10.4531
87 87 -10.9541
88 87 -11.9054
89 87 -12.7826
90 87 -14.0205
91 87 -15.336
92 87 -17.1554
93 87 -17.2437
94 87 -16.0463
95 87 -48.3539
96 87 -48.3539
97 87 -48.3539
98 87 -48.3539
99 87 -48.3539
100 87 -48.3539
101 87 -48.3539
102 87 -48.3539
103 87 -48.3539
104 87 -48.3539
105 87 -48.3539
106 87 -48.3539
107 87 -48.3539
108 87 -48.3539
109 87 -48.3539
110 87 -48.3539
111 87 -48.3539
112 87 -48.3539
113 87 -48.3539
114 87 -48.3539
115 87 -48.3539
116 87 -48.3539
117 87 -48.3539
118 87 -48.3539
119 87 -48.3539
0 88 -48.3539
1 88 -48.3539
2 88 -48.3539
3 88 -48.3539
4 88 -48.3539
5 88 -48.3539
6 88 -48.3539
7 88 -48.3539
8 88 -48.3539
9 88 -48.3539
10 88 -48.3539
11 88 -48.3539
12 88 -48.3539
13 88 -48.3539
14 88 -48.3539
15 88 -48.3539
16 88 -48.3539
17 88 -48.3539
18 88 -48.3539
19 88 -48.3539
20 88 -48.3539
21 88 -48.3539
22 88 -48.3539
23 88 -48.3539
24 88 -48.3539
25 88 -48.3539
26 88 -48.3539
27 88 -48.3539
28 88 -48.3539
29 88 -30.9277
30 88 -29.3494
31 88 -24.8644
32 88 -21.8081
33 88 -19.6321
34 88 -17.7887
35 88 -15.9924
36 88 -14.8246
37 88 -13.4789
38 88 -12.4941
39 88 -11.4542
40 88 -10.6944
41 88 -9.84026
42 88 -9.31424
43 88 -8.82573
44 88 -8.2354
45 88 -7.71961
46 88 -7.25682
47 88 -6.9204
48 88 -6.29873
49 88 -5.94883
50 88 -5.36221
51 88 -5.07214
52 88 -4.60917
53 88 -4.33586
54 88 -3.84563
55 88 -3.30835
56 88 -3.25886
57 88 -3.29169
58 88 -3.22582
59 88 -2.95018
60 88 -2.83158
61 88 -3.07109
62 88 -3.28519
63 88 -3.89915
64 88 -4.24847
65 88 -4.45735
66 88 -4.75256
67 88 -4.47033
68 88 -4.26216
69 88 -4.0443
70 88 -3.97589
71 88 -3.97589
72 88 -3.97166
73 88 -3.97166
74 88 -3.89941
75 88 -3.93206
76 88 -3.98014
77 88 -4.38772
78 88 -4.7008
79 88 -4.97056
80 88 -5.76605
81 88 -6.33961
82 88 -6.96351
83 88 -7.76444
84 88 -8.73989
85 88 -9.67636
86 88 -10.7027
87 88 -11.3165
88 88 -12.2367
89 88 -12.8659
90 88 -14.0405
91 88 -15.4659
92 88 -17.1554
93 88 -17.2437
94 88 -15.969
95 88 -48.3539
96 88 -48.3539
97 88 -48.3539
98 88 -48.3539
99 88 -48.3539
100 88 -48.3539
101 88 -48.3539
102 88 -48.3539
103 88 -48.3539
104 88 -48.3539
105 88 -48.3539
106 88 -48.3539
107 88 -48.3539
108 88 -48.3539
109 88 -48.3539
110 88 -48.3539
111 88 -48.3539
112 88 -48.3539
113 88 -48.3539
114 88 -48.3539
115 88 -48.3539
116 88 -48.3539
117 88 -48.3539
118 88 -48.3539
119 88 -48.3539
0 89 -48.3539
1 89 -48.3539
2 89 -48.3539
3 89 -48.3539
4 89 -48.3539
5 89 -48.3539
6 89 -48.3539
7 89 -48.3539
8 89 -48.3539
9 89 -48.3539
10 89 -48.3539
11 89 -48.3539
12 89 -48.3539
13 89 -48.3539
14 89 -48.3539
15 89 -48.3539
16 89 -48.3539
17 89 -48.3539
18 89 -48.3539
19 89 -48.3539
20 89 -48.3539
21 89 -48.3539
22 89 -48.3539
23 89 -48.3539
24 89 -48.3539
25 89 -48.3539
26 89 -48.3539
27 89 -48.3539
28 89 -48.3539
29 89 -30.9277
30 89 -30.9277
31 89 -25.8935
32 89 -22.2266
33 89 -19.8386
34 89 -18.0586
35 89 -16.3743
36 89 -15.0301
37 89 -13.9225
38 89 -12.7463
39 89 -11.5975
40 89 -10.7938
41 89 -9.84026
42 89 -9.31603
43 89 -8.86728
44 89 -8.24577
45 89 -7.77663
46 89 -7.37523
47 89 -6.9234
48 89 -6.26045
49 89 -5.94883
50 89 -5.32036
51 89 -5.02214
52 89 -4.57608
53 89 -4.29263
54 89 -4.00126
55 89 -3.3675
56 89 -3.23011
57 89 -2.94056
58 89 -2.72992
59 89 -2.6407
60 89 -2.53485
61 89 -2.60866
62 89 -3.1258
63 89 -3.59731
64 89 -3.89915
65 89 -4.07104
66 89 -4.07104
67 89 -3.95895
68 89 -3.89373
69 89 -3.81856
70 89 -3.72836
71 89 -3.69743
72 89 -3.69743
73 89 -3.71544
74 89 -3.71544
75 89 -3.74169
76 89 -3.93206
77 89 -4.38772
78 89 -4.7008
79 89 -5.13904
80 89 -5.62999
81 89 -6.41044
82 89 -7.06722
83 89 -7.87702
84 89 -8.73271
85 89 -9.72245
86 89 -10.7027
87 89 -11.3417
88 89 -12.4433
89 89 -13.3776
90 89 -14.732
91 89 -16.3797
92 89 -16.7242
93 89 -17.2437
94 89 -48.3539
95 89 -48.3539
96 89 -48.3539
97 89 -48.3539
98 89 -48.3539
99 89 -48.3539
100 89 -48.3539
101 89 -48.3539
102 89 -48.3539
103 89 -48.3539
104 89 -48.3539
105 89 -48.3539
106 89 -48.3539
107 89 -48.3539
108 89 -48.3539
109 89 -48.3539
110 89 -48.3539
111 89 -48.3539
112 89 -48.3539
113 89 -48.3539
114 89 -48.3539
115 89 -48.3539
116 89 -48.3539
117 89 -48.3539
118 89 -48.3539
119 89 -48.3539
0 90 -48.3539
1 90 -48.3539
2 90 -48.3539
3 90 -48.3539
4 90 -48.3539
5 90 -48.3539
6 90 -48.3539
7 90 -48.3539
8 90 -48.3539
9 90 -48.3539
10 90 -48.3539
11 90 -48.3539
12 90 -48.3539
13 90 -48.3539
14 90 -48.3539
15 90 -48.3539
16 90 -48.3539
17 90 -48.3539
18 90 -48.3539
19 90 -48.3539
20 90 -48.3539
21 90 -48.3539
22 90 -48.3539
23 90 -48.3539
24 90 -48.3539
25 90 -48.3539
26 90 -48.3539
27 90 -48.3539
28 90 -48.3539
29 90 -30.9277
30 90 -30.9277
31 90 -26.8113
32 90 -22.8053
33 90 -20.049
34 90 -18.0905
35 90 -16.5909
36 90 -15.1838
37 90 -14.021
38 90 -12.9158
39 90 -11.8307
40 90 -10.8074
41 90 -9.85799
42 90 -9.4047
43 90 -8.82573
44 90 -8.36676
45 90 -7.86404
46 90 -7.43215
47 90 -6.9234
48 90 -6.26045
49 90 -5.71085
50 90 -5.12912
51 90 -4.84091
52 90 -4.48098
53 90 -4.22245
54 90 -3.93812
55 90 -3.3675
56 90 -2.94056
57 90 -2.72992
58 90 -2.41385
59 90 -2.21885
60 90 -2.21885
61 90 -2.39837
62 90 -2.60866
63 90 -3.1258
64 90 -3.59731
65 90 -3.68178
66 90 -3.6738
67 90 -3.54364
68 90 -3.50451
69 90 -3.53287
70 90 -3.50451
71 90 -3.4282
72 90 -3.42778
73 90 -3.38137
74 90 -3.29652
75 90 -3.54805
76 90 -3.71204
77 90 -4.30537
78 90 -4.67846
79 90 -5.13904
80 90 -5.62999
81 90 -6.33961
82 90 -7.06864
83 90 -7.87702
84 90 -8.73271
85 90 -9.72245
86 90 -10.5841
87 90 -11.4507
88 90 -12.4449
89 90 -13.4694
90 90 -14.9102
91 90 -16.4619
92 90 -16.5796
93 90 -15.762
94 90 -48.3539
95 90 -48.3539
96 90 -48.3539
97 90 -48.3539
98 90 -48.3539
99 90 -48.3539
100 90 -48.3539
101 90 -48.3539
102 90 -48.3539
103 90 -48.3539
104 90 -48.3539
105 90 -48.3539
106 90 -48.3539
107 90 -48.3539
108 90 -48.3539
109 90 -48.3539
110 90 -48.3539
111 90 -48.3539
112 90 -48.3539
113 90 -48.3539
114 90 -48.3539
115 90 -48.3539
116 90 -48.3539
117 90 -48.3539
118 90 -48.3539
119 90 -48.3539
0 91 -48.3539
1 91 -48.3539
2 91 -48.3539
3 91 -48.3539
4 91 -48.3539
5 91 -48.3539
6 91 -48.3539
7 91 -48.3539
8 91 -48.3539
9 91 -48.3539
10 91 -48.3539
11 91 -48.3539
12 91 -48.3539
13 91 -48.3539
14 91 -48.3539
15 91 -48.3539
16 91 -48.3539
17 91 -48.3539
18 91 -48.3539
19 91 -48.3539
20 91 -48.3539
21 91 -48.3539
22 91 -48.3539
23 91 -48.3539
24 91 -48.3539
25 91 -48.3539
26 91 -48.3539
27 91 -48.3539
28 91 -48.3539
29 91 -48.3539
30 91 -30.2839
31 91 -28.4525
32 91 -23.4907
33 91 -20.5692
34 91 -18.5285
35 91 -16.9018
36 91 -15.4368
37 91 -14.1855
38 91 -13.0846
39 91 -11.8378
40 91 -10.9765
41 91 -10.1866
42 91 -9.6047
43 91 -8.84321
44 91 -8.36676
45 91 -7.86404
46 91 -7.42504
47 91 -6.84836
48 91 -6.06128
49 91 -5.53882
50 91 -5.07736
51 91 -4.76256
52 91 -4.29263
53 91 -4.03716
54 91 -3.63905
55 91 -3.15767
56 91 -2.79501
57 91 -2.47444
58 91 -2.21885
59 91 -1.90375
60 91 -2.02796
61 91 -2.18185
62 91 -2.25983
63 91 -2.60866
64 91 -2.94456
65 91 -2.94456
66 91 -2.94354
67 91 -2.94354
68 91 -3.23337
69 91 -3.23337
70 91 -3.04497
71 91 -3.00216
72 91 -2.75814
73 91 -2.75814
74 91 -2.94356
75 91 -3.20016
76 91 -3.59871
77 91 -4.28517
78 91 -4.5976
79 91 -4.99827
80 91 -5.62999
81 91 -6.16355
82 91 -7.06864
83 91 -7.77774
84 91 -8.738
85 91 -9.6782
86 91 -10.5007
87 91 -11.4507
88 91 -12.4661
89 91 -13.4901
90 91 -14.9102
91 91 -16.4619
92 91 -16.5796
93 91 -15.762
94 91 -48.3539
95 91 -48.3539
96 91 -48.3539
97 91 -48.3539
98 91 -48.3539
99 91 -48.3539
100 91 -48.3539
101 91 -48.3539
102 91 -48.3539
103 91 -48.3539
104 91 -48.3539
105 91 -48.3539
106 91 -48.3539
107 91 -48.3539
108 91 -48.3539
109 91 -48.3539
110 91 -48.3539
111 91 -48.3539
112 91 -48.3539
113 91 -48.3539
114 91 -48.3539
115 91 -48.3539
116 91 -48.3539
117 91 -48.3539
118 91 -48.3539
119 91 -48.3539
0 92 -48.3539
1 92 -48.3539
2 92 -48.3539
3 92 -48.3539
4 92 -48.3539
5 92 -48.3539
6 92 -48.3539
7 92 -48.3539
8 92 -48.3539
9 92 -48.3539
10 92 -48.3539
11 92 -48.3539
12 92 -48.3539
13 92 -48.3539
14 92 -48.3539
15 92 -48.3539
16 92 -48.3539
17 92 -48.3539
18 92 -48.3539
19 92 -48.3539
20 92 -48.3539
21 92 -48.3539
22 92 -48.3539
23 92 -48.3539
24 92 -48.3539
25 92 -48.3539
26 92 -48.3539
27 92 -48.3539
28 92 -48.3539
29 92 -48.3539
30 92 -30.2839
31 92 -30.2839
32 92 -24.6359
33 92 -21.1028
34 92 -18.7189
35 92 -16.9785
36 92 -15.4725
37 92 -14.2657
38 92 -13.1888
39 92 -12.0871
40 92 -11.0666
41 92 -10.3877
42 92 -9.62327
43 92 -8.84321
44 92 -8.09233
45 92 -7.5682
46 92 -7.30293
47 92 -6.53292
48 92 -5.82936
49 92 -5.40906
50 92 -4.82971
51 92 -4.5241
52 92 -4.02549
53 92 -3.63905
54 92 -3.23971
55 92 -2.84812
56 92 -2.67374
57 92 -2.24438
58 92 -1.8846
59 92 -1.8129
60 92 -1.89107
61 92 -1.90375
62 92 -2.00474
63 92 -2.17403
64 92 -2.15566
65 92 -2.17403
66 92 -2.31517
67 92 -2.45763
68 92 -2.57957
69 92 -2.57957
70 92 -2.58839
71 92 -2.56278
72 92 -2.63485
73 92 -2.54614
74 92 -2.66337
75 92 -2.84205
76 92 -3.28991
77 92 -3.66543
78 92 -4.41204
79 92 -4.96796
80 92 -5.52622
81 92 -6.03628
82 92 -6.688
83 92 -7.77212
84 92 -8.738
85 92 -9.53848
86 92 -10.4959
87 92 -11.4829
88 92 -12.5963
89 92 -13.7979
90 92 -14.7805
91 92 -16.2734
92 92 -17.6628
93 92 -17.6628
94 92 -48.3539
95 92 -48.3539
96 92 -48.3539
97 92 -48.3539
98 92 -48.3539
99 92 -48.3539
100 92 -48.3539
101 92 -48.3539
102 92 -48.3539
103 92 -48.3539
104 92 -48.3539
105 92 -48.3539
106 92 -48.3539
107 92 -48.3539
108 92 -48.3539
109 92 -48.3539
110 92 -48.3539
111 92 -48.3539
112 92 -48.3539
113 92 -48.3539
114 92 -48.3539
115 92 -48.3539
116 92 -48.3539
117 92 -48.3539
118 92 -48.3539
119 92 -48.3539
0 93 -48.3539
1 93 -48.3539
2 93 -48.3539
3 93 -48.3539
4 93 -48.3539
5 93 -48.3539
6 93 -48.3539
7 93 -48.3539
8 93 -48.3539
9 93 -48.3539
10 93 -48.3539
11 93 -48.3539
12 93 -48.3539
13 93 -48.3539
14 93 -48.3539
15 93 -48.3539
16 93 -48.3539
17 93 -48.3539
18 93 -48.3539
19 93 -48.3539
20 93 -48.3539
21 93 -48.3539
22 93 -48.3539
23 93 -48.3539
24 93 -48.3539
25 93 -48.3539
26 93 -48.3539
27 93 -48.3539
28 93 -48.3539
29 93 -48.3539
30 93 -30.2839
31 93 -30.2839
32 93 -25.4971
33 93 -21.1304
34 93 -18.7189
35 93 -16.9785
36 93 -15.5021
37 93 -14.1855
38 93 -13.0846
39 93 -12.2814
40 93 -11.3965
41 93 -10.5598
42 93 -9.62327
43 93 -8.84321
44 93 -7.96946
45 93 -7.42504
46 93 -7.00345
47 93 -6.03541
48 93 -5.57073
49 93 -4.97467
50 93 -4.53772
51 93 -4.09654
52 93 -3.81669
53 93 -3.25143
54 93 -3.09417
55 93 -2.73733
56 93 -2.44746
57 93 -1.86436
58 93 -1.8129
59 93 -1.65671
60 93 -1.5929
61 93 -1.64493
62 93 -1.5929
63 93 -1.54402
64 93 -1.54402
65 93 -1.69512
66 93 -1.76599
67 93 -1.90783
68 93 -1.90783
69 93 -2.23736
70 93 -2.23736
71 93 -2.16935
72 93 -2.20054
73 93 -2.24214
74 93 -2.47408
75 93 -2.54614
76 93 -2.77319
77 93 -3.28991
78 93 -3.90107
79 93 -4.5976
80 93 -5.09762
81 93 -5.98066
82 93 -6.54201
83 93 -7.38387
84 93 -8.61258
85 93 -9.53848
86 93 -10.4959
87 93 -11.8711
88 93 -12.8227
89 93 -13.8581
90 93 -14.7805
91 93 -16.1132
92 93 -17.6628
93 93 -17.6628
94 93 -48.3539
95 93 -48.3539
96 93 -48.3539
97 93 -48.3539
98 93 -48.3539
99 93 -48.3539
100 93 -48.3539
101 93 -48.3539
102 93 -48.3539
103 93 -48.3539
104 93 -48.3539
105 93 -48.3539
106 93 -48.3539
107 93 -48.3539
108 93 -48.3539
109 93 -48.3539
110 93 -48.3539
111 93 -48.3539
112 93 -48.3539
113 93 -48.3539
114 93 -48.3539
115 93 -48.3539
116 93 -48.3539
117 93 -48.3539
118 93 -48.3539
119 93 -48.3539
0 94 -48.3539
1 94 -48.3539
2 94 -48.3539
3 94 -48.3539
4 94 -48.3539
5 94 -48.3539
6 94 -48.3539
7 94 -48.3539
8 94 -48.3539
9 94 -48.3539
10 94 -48.3539
11 94 -48.3539
12 94 -48.3539
13 94 -48.3539
14 94 -48.3539
15 94 -48.3539
16 94 -48.3539
17 94 -48.3539
18 94 -48.3539
19 94 -48.3539
20 94 -48.3539
21 94 -48.3539
22 94 -48.3539
23 94 -48.3539
24 94 -48.3539
25 94 -48.3539
26 94 -48.3539
27 94 -48.3539
28 94 -48.3539
29 94 -48.3539
30 94 -48.3539
31 94 -29.5485
32 94 -27.4053
33 94 -21.6295
34 94 -18.7609
35 94 -16.9105
36 94 -15.5021
37 94 -14.2657
38 94 -13.1216
39 94 -12.2814
40 94 -11.3965
41 94 -10.5598
42 94 -9.49032
43 94 -8.56631
44 94 -7.66893
45 94 -7.16484
46 94 -6.48523
47 94 -5.72984
48 94 -5.15838
49 94 -4.73826
50 94 -4.23686
51 94 -3.95125
52 94 -3.5371
53 94 -3.15906
54 94 -2.73733
55 94 -2.42197
56 94 -2.04191
57 94 -1.66028
58 94 -1.39843
59 94 -1.37135
60 94 -1.18006
61 94 -1.12555
62 94 -0.827257
63 94 -0.827257
64 94 -1.09212
65 94 -1.2413
66 94 -1.32932
67 94 -1.49498
68 94 -1.75656
69 94 -1.79003
70 94 -1.82871
71 94 -1.8861
72 94 -1.92774
73 94 -2.1309
74 94 -2.01344
75 94 -2.24214
76 94 -2.53875
77 94 -2.77319
78 94 -3.41829
79 94 -4.15869
80 94 -4.98927
81 94 -5.89127
82 94 -6.46898
83 94 -7.38387
84 94 -8.61258
85 94 -9.58095
86 94 -10.6051
87 94 -11.8711
88 94 -12.9017
89 94 -14.0949
90 94 -15.0441
91 94 -15.759
92 94 -17.0953
93 94 -14.1136
94 94 -48.3539
95 94 -48.3539
96 94 -48.3539
97 94 -48.3539
98 94 -48.3539
99 94 -48.3539
100 94 -48.3539
101 94 -48.3539
102 94 -48.3539
103 94 -48.3539
104 94 -48.3539
105 94 -48.3539
106 94 -48.3539
107 94 -48.3539
108 94 -48.3539
109 94 -48.3539
110 94 -48.3539
111 94 -48.3539
112 94 -48.3539
113 94 -48.3539
114 94 -48.3539
115 94 -48.3539
116 94 -48.3539
117 94 -48.3539
118 94 -48.3539
119 94 -48.3539
0 95 -48.3539
1 95 -48.3539
2 95 -48.3539
3 95 -48.3539
4 95 -48.3539
5 95 -48.3539
6 95 -48.3539
7 95 -48.3539
8 95 -48.3539
9 95 -48.3539
10 95 -48.3539
11 95 -48.3539
12 95 -48.3539
13 95 -48.3539
14 95 -48.3539
15 95 -48.3539
16 95 -48.3539
17 95 -48.3539
18 95 -48.3539
19 95 -48.3539
20 95 -48.3539
21 95 -48.3539
22 95 -48.3539
23 95 -48.3539
24 95 -48.3539
25 95 -48.3539
26 95 -48.3539
27 95 -48.3539
28 95 -48.3539
29 95 -48.3539
30 95 -48.3539
31 95 -29.5485
32 95 -29.5485
33 95 -22.4923
34 95 -19.1825
35 95 -16.9105
36 95 -15.223
37 95 -14.1537
38 95 -12.9919
39 95 -12.125
40 95 -11.31
41 95 -10.1769
42 95 -8.97433
43 95 -8.45824
44 95 -7.6548
45 95 -6.97152
46 95 -6.1904
47 95 -5.72984
48 95 -4.85676
49 95 -4.51015
50 95 -4.0368
51 95 -3.63359
52 95 -3.15906
53 95 -2.70271
54 95 -2.42197
55 95 -2.04191
56 95 -1.71871
57 95 -1.40272
58 95 -1.18006
59 95 -0.886251
60 95 -0.830689
61 95 -0.430241
62 95 -0.430241
63 95 -0.577808
64 95 -0.738581
65 95 -0.787386
66 95 -0.99003
67 95 -1.16659
68 95 -1.40325
69 95 -1.40913
70 95 -1.40325
71 95 -1.40913
72 95 -1.73509
73 95 -1.73509
74 95 -1.87013
75 95 -1.96075
76 95 -2.32787
77 95 -2.59188
78 95 -3.02588
79 95 -3.60743
80 95 -4.46733
81 95 -5.41281
82 95 -6.2396
83 95 -7.38387
84 95 -8.6287
85 95 -9.59529
86 95 -10.6051
87 95 -11.6094
88 95 -12.9334
89 95 -14.3681
90 95 -15.4955
91 95 -15.9202
92 95 -16.1132
93 95 -48.3539
94 95 -48.3539
95 95 -48.3539
96 95 -48.3539
97 95 -48.3539
98 95 -48.3539
99 95 -48.3539
100 95 -48.3539
101 95 -48.3539
102 95 -48.3539
103 95 -48.3539
104 95 -48.3539
105 95 -48.3539
106 95 -48.3539
107 95 -48.3539
108 95 -48.3539
109 95 -48.3539
110 95 -48.3539
111 95 -48.3539
112 95 -48.3539
113 95 -48.3539
114 95 -48.3539
115 95 -48.3539
116 95 -48.3539
117 95 -48.3539
118 95 -48.3539
119 95 -48.3539
0 96 -48.3539
1 96 -48.3539
2 96 -48.3539
3 96 -48.3539
4 96 -48.3539
5 96 -48.3539
6 96 -48.3539
7 96 -48.3539
8 96 -48.3539
9 96 -48.3539
10 96 -48.3539
11 96 -48.3539
12 96 -48.3539
13 96 -48.3539
14 96 -48.3539
15 96 -48.3539
16 96 -48.3539
17 96 -48.3539
18 96 -48.3539
19 96 -48.3539
20 96 -48.3539
21 96 -48.3539
22 96 -48.3539
23 96 -48.3539
24 96 -48.3539
25 96 -48.3539
26 96 -48.3539
27 96 -48.3539
28 96 -48.3539
29 96 -48.3539
30 96 -48.3539
31 96 -29.5485
32 96 -29.5485
33 96 -23.0343
34 96 -19.1833
35 96 -16.9156
36 96 -15.1729
37 96 -14.0572
38 96 -12.624
39 96 -11.749
